0.211787 0.176088 -0.0148297
0.219562 0.163319 0.00369162
0.21735 0.173307 -0.00092288
0.225693 0.163446 0.00407091
0.229867 0.151309 -0.00111252
0.233722 0.154027 -0.00243997
0.2329 0.147769 -0.010468
0.232142 0.152004 -0.0242484
0.223102 0.158958 -0.0304432
0.21381 0.17002 -0.0261447
0.225884 0.163066 -0.0301271
0.2329 0.187467 -0.00212392
0.281132 0.234813 -0.0126804
0.285936 0.22925 0.000531008
0.242571 0.176151 0.00375482
0.295607 0.217935 0.00293311
0.249588 0.167997 -0.00111252
0.302686 0.209465 -0.00566382
0.252623 0.164457 -0.010468
0.252623 0.164457 -0.0132493
0.303952 0.2082 -0.0107208
0.248008 0.169704 -0.0265872
0.300158 0.212436 -0.0263344
0.23625 0.183421 -0.029179
0.290803 0.223372 -0.0308857
0.230118 0.19069 -0.0175478
0.284102 0.231336 -0.0258919
0.283027 0.234181 -0.0188121
0.287326 0.227543 0.00185849
0.302371 0.213068 -0.00566383
0.303952 0.209717 -0.0133126
0.301549 0.212499 -0.0238691
0.293837 0.222613 -0.0306961
0.285239 0.229946 -0.0279147
0.293079 0.221854 -0.0314546
0.29548 0.221222 0.00179527
0.299527 0.213384 0.000278162
0.296745 0.216418 -0.0301904
0.284734 0.233738 -0.00806593
0.290802 0.226911 0.00116314
0.301043 0.214648 -0.00262963
0.304205 0.210982 -0.0135022
0.30079 0.214901 -0.0240587
0.284987 0.233485 -0.0209613
0.29409 0.222866 -0.0294318
0.204328 0.172043 -0.0162835
0.195194 0.166859 -0.0133442
0.197754 0.163699 -0.0160307
0.203569 0.172991 -0.0120483
0.197943 0.163572 -0.0131229
0.197122 0.164457 -0.01641
0.196489 0.165216 -0.0167893
0.0177239 0.0154648 -0.0138815
0.0196202 0.0132208 -0.0122695
0.194783 0.167365 -0.0135654
0.00754666 0.00670978 -0.0130597
0.0194939 0.0132523 -0.0160307
0.0176923 0.0151804 -0.0118271
0.00988556 0.00389693 -0.00945659
0.196489 0.165216 -0.0152722
0.00811563 0.00263249 -0.0117322
0.00685129 0.00414967 -0.0142608
0.00988556 0.00389693 -0.0157779
0.0194939 0.0119881 -0.0157779
0.00738862 0.00211104 -0.0133916
0.029355 0.000167341 -0.0296214
0.0124141 -0.00571141 -0.0276618
0.0365612 -0.00836642 -0.0275354
0.0196835 -0.0144349 -0.0294318
0.0422504 -0.014814 -0.0122379
0.029355 -0.0256866 -0.0147665
0.0417447 -0.0143083 -0.00692807
0.029355 -0.0256866 -0.00945659
0.0249302 -0.0203768 0.00154243
0.0332742 -0.00432072 0.00470313
0.023982 0.00655182 0.00072065
0.0179135 -0.012096 0.00476626
0.00817875 -0.000844113 -0.00402029
0.0199996 0.0127466 -0.0117322
0.214189 0.167934 -0.0228577
0.0227809 0.009586 -0.00711772
0.0235395 0.00857467 -0.0201395
0.222849 0.15782 -0.0272826
0.0318835 -0.00122341 -0.0261764
0.229803 0.149729 -0.0165996
0.21204 0.170525 -0.00680167
0.0316939 -0.000907299 0.00125796
0.21697 0.164836 -0.000164319
0.041239 -0.0120326 -0.0122379
0.22544 0.154849 -0.000922874
0.230372 0.149033 -0.0132494
0.041239 -0.0120326 -0.0122379
0.00836838 -0.000907359 -0.00262963
0.0186721 -0.0130442 0.00432378
0.0273322 -0.0231582 -0.00225032
0.029355 -0.0256866 -0.0147665
0.0263209 -0.0223997 -0.0243748
0.0110234 -0.0117799 -0.0285468
0.0172182 -0.0115272 -0.0301904
0.00824199 -0.000970485 -0.0211509
0.00552382 -0.0230555 -0.011748
0.00697775 -0.0242959 -0.0164732
0.00166786 -0.0152566 -0.00838196
0.00558702 -0.0226524 -0.017295
0.00533418 -0.0196183 -0.0213406
0.0150689 -0.0285629 -0.0151457
0.00817876 -0.0203768 -0.00120732
0.00710413 -0.021641 -0.0218463
0.00937983 -0.0135498 -0.0279147
0.0162068 -0.0140556 -0.0299375
0.0157011 -0.0206298 -0.0276618
0.0220856 -0.0282784 -0.015525
0.0179293 -0.02703 -0.00405189
0.0139311 -0.0186069 0.00369168
0.00795752 -0.0112426 0.00122633
0.00277407 -0.00526893 -0.00920373
0.00147821 -0.0115902 -0.0169157
0.00937983 -0.0196183 -0.025639
0.0205054 -0.0155727 -0.0296846
0.0895334 0.0327219 -0.0210877
0.105716 0.0458701 -0.0210877
0.0843501 0.0392328 -0.0272826
0.075121 0.0506742 -0.0253862
0.0999005 0.0529499 -0.027409
0.0913033 0.0635697 -0.0253862
0.075121 0.0506742 -0.0253862
0.0895177 0.0658137 -0.023632
0.0829594 0.0741894 -0.025639
0.0675356 0.0600298 -0.0251333
0.0829594 0.0741894 -0.0251333
0.089565 0.0657505 -0.0234582
0.0675356 0.0600298 -0.0246276
0.075121 0.0506742 -0.0246276
0.075121 0.0506742 -0.0246276
0.0913033 0.0635697 -0.0246276
0.082833 0.041066 -0.0275354
0.0971191 0.056237 -0.0281676
0.0887749 0.0338597 -0.0219727
0.105463 0.0458701 -0.0203292
0.105463 0.0458701 -0.0203292
0.0910822 0.0310151 -0.0192546
0.100406 0.0365145 -0.0185592
0.0943377 0.0269062 -0.0198235
0.109382 0.0411923 -0.0191913
0.111784 0.0152752 -0.00490528
0.101007 0.0186255 -0.000511983
0.106222 0.0119881 -0.00389387
0.112543 0.0145167 -0.00642239
0.10698 0.0109766 -0.00541096
0.112101 0.0148959 -0.018654
0.10875 0.0255156 -0.0253862
0.106727 0.0114824 -0.0210877
0.115514 0.0335436 -0.0251333
0.116336 0.0223549 -0.0233634
0.12114 0.0269062 -0.0236162
0.119275 0.0188151 -0.0108789
0.124364 0.0227343 -0.0154302
0.123921 0.0233664 -0.00692807
0.117347 0.0213437 -0.00364103
0.10875 0.0255156 -0.000353949
0.123163 0.0241248 -0.00541096
0.0943377 0.0269062 -0.0198235
0.0986362 0.02147 -0.0245012
0.11052 0.0398017 -0.0198235
0.0958548 0.0248835 -0.0030089
0.111531 0.0385375 -0.00364103
0.0953492 0.0253893 -0.00364103
0.0914298 0.0305727 -0.00730735
0.111531 0.0385375 -0.00364103
0.107865 0.0431204 -0.0070545
0.0887749 0.0339861 -0.00389387
0.104705 0.0468816 -0.00389387
0.0887749 0.0339861 -0.00389387
0.0822009 0.0418244 0.001416
0.104705 0.0468816 -0.00389387
0.075121 0.0504214 -0.00136536
0.0974351 0.0560474 0.00154243
0.0913033 0.0635697 -0.00136536
0.075121 0.0504214 -0.00136536
0.0910822 0.0638541 -0.00171303
0.0829594 0.0741894 -0.00111252
0.0667769 0.0610412 -0.00111252
0.0667769 0.0610412 -0.000353949
0.0845081 0.0721982 -0.00117571
0.0913033 0.0635697 -0.000606813
0.0740463 0.0520018 -0.00187106
0.0753738 0.0504214 -0.000606813
0.0808101 0.0437209 0.00217456
0.0913033 0.0635697 -0.000606813
0.0892807 0.0332274 -0.00439958
0.0988099 0.0544355 0.00174787
0.105463 0.0461229 -0.00439958
0.100406 0.0365145 -0.00667523
0.0918091 0.0299406 -0.00667523
0.0945905 0.0266535 -0.00465242
0.108813 0.0419509 -0.00597989
0.105463 0.0461229 -0.00439958
0.105716 0.0231136 -0.0258919
0.114566 0.0296876 -0.0258919
0.112037 0.0150223 -0.0208349
0.10344 0.0156228 -0.0241219
0.113554 0.0131892 -0.0112582
0.108687 0.00908028 -0.0152089
0.111279 0.0160337 -0.00313531
0.10875 0.0255156 0.000151731
0.106475 0.0117985 -0.00402029
0.116083 0.0329747 0.000151731
0.1182 0.0202374 -0.0060115
0.121393 0.0265271 -0.00187106
0.124711 0.0222601 -0.0108789
0.117015 0.0217228 -0.0221465
0.121898 0.0257685 -0.0227313
0.0945905 0.0266535 -0.00465242
0.0986362 0.0215964 -0.000480393
0.11052 0.0398017 -0.00465242
0.0945905 0.0266535 -0.0210877
0.11052 0.0395489 -0.0210877
0.0920621 0.0296876 -0.0190649
0.0945905 0.0266535 -0.0210877
0.0993947 0.0362618 -0.0190649
0.0895334 0.0327219 -0.0210877
0.108244 0.0428358 -0.0190649
0.189662 0.117427 -0.0210877
0.205592 0.130575 -0.0210877
0.181066 0.128047 -0.0286732
0.199618 0.138003 -0.0273142
0.17525 0.135379 -0.0253862
0.19118 0.148275 -0.0253862
0.17525 0.135379 -0.0253862
0.190216 0.149681 -0.0238375
0.184352 0.156872 -0.0246276
0.167664 0.144735 -0.0251333
0.182835 0.158642 -0.0251333
0.19118 0.148275 -0.0246276
0.167159 0.145241 -0.0248805
0.173053 0.137924 -0.0229999
0.175756 0.134747 -0.0252598
0.19118 0.148275 -0.0246276
0.182899 0.125708 -0.0275354
0.198607 0.139299 -0.027409
0.18941 0.11768 -0.0203292
0.205592 0.130575 -0.0203292
0.205592 0.130575 -0.0203292
0.190674 0.116099 -0.0191913
0.194214 0.111611 -0.0198235
0.210396 0.124507 -0.0198235
0.205592 0.107566 -0.000353949
0.20123 0.103014 -0.000733244
0.211913 0.0999802 -0.00490528
0.206351 0.0966931 -0.00389387
0.213178 0.0983366 -0.00920375
0.207109 0.0956817 -0.00541096
0.211882 0.0999802 -0.0203608
0.208373 0.0941962 -0.0136918
0.20398 0.0995377 -0.0238375
0.211913 0.112623 -0.0253862
0.212545 0.121915 -0.022352
0.218614 0.104342 -0.0182116
0.222153 0.109936 -0.0217515
0.218235 0.105037 -0.00490528
0.223796 0.108071 -0.00692807
0.217223 0.106049 -0.00364103
0.211913 0.112623 -0.000353949
0.223291 0.10883 -0.00541096
0.194214 0.111611 -0.0198235
0.202937 0.105796 -0.0253862
0.195478 0.110094 -0.00364103
0.214221 0.120034 -0.0015392
0.199761 0.12122 -0.00737058
0.191116 0.115531 -0.00718094
0.211408 0.123369 -0.00427316
0.199524 0.121725 -0.00718093
0.194593 0.111137 -0.00506331
0.188651 0.118438 -0.00389387
0.206635 0.129279 -0.00626436
0.188651 0.118438 -0.00389387
0.204833 0.131586 -0.00389387
0.181318 0.127667 0.00154241
0.199018 0.138666 0.00141599
0.17525 0.135127 -0.00136536
0.191432 0.148275 -0.00136536
0.174381 0.136249 -0.00213971
0.191432 0.148275 -0.00136536
0.182835 0.158642 -0.00111252
0.166653 0.145746 -0.00111252
0.183215 0.158136 -0.000606813
0.174539 0.136027 -0.00141278
0.191432 0.148275 -0.000606813
0.167032 0.145241 -0.000606813
0.17525 0.135127 -0.000606813
0.182124 0.126561 0.00203232
0.191432 0.148275 -0.000606813
0.189157 0.117933 -0.00439958
0.199587 0.138034 0.00163724
0.205339 0.130828 -0.00439958
0.194467 0.111358 -0.00465242
0.207931 0.127573 -0.00547419
0.190168 0.116795 -0.00541098
0.207425 0.105416 -0.0251966
0.201357 0.102762 -0.025323
0.213146 0.0984631 -0.0174846
0.207804 0.0947335 -0.018654
0.21185 0.100043 -0.004526
0.2085 0.0939118 -0.00882445
0.204549 0.0989055 -0.00180785
0.211913 0.112623 0.000151731
0.215959 0.11768 0.000151731
0.219372 0.10333 -0.00768664
0.221016 0.111485 -0.00187106
0.218772 0.104089 -0.0191281
0.22481 0.106807 -0.0128701
0.213051 0.111106 -0.025639
0.194467 0.111358 -0.00465242
0.211028 0.123748 -0.00389386
0.202368 0.106554 2.53107e-05
0.218108 0.115056 -0.0249121
0.194467 0.111358 -0.0210877
0.210649 0.124254 -0.0210877
0.190547 0.116289 -0.0202028
0.210649 0.124254 -0.0210877
0.194467 0.111358 -0.0210877
0.207615 0.128078 -0.0197919
0.301675 0.446133 -0.30605
0.391437 0.583683 -0.329567
0.25572 0.513265 -0.314395
0.373738 0.491141 -0.308959
0.384279 0.524611 -0.314197
0.374038 0.569224 -0.322375
0.284607 0.530838 -0.314837
0.296935 0.508081 -0.310222
0.313876 0.498789 -0.308137
0.335178 0.500306 -0.308074
0.352182 0.513391 -0.310222
0.357998 0.531218 -0.313194
0.354142 0.546262 -0.315659
0.344597 0.555681 -0.317238
0.331385 0.560232 -0.317681
0.318363 0.557894 -0.316922
0.308629 0.549169 -0.315153
0.313149 0.522273 -0.309496
0.325064 0.518765 -0.30839
0.333029 0.522557 -0.308832
0.335558 0.53697 -0.311012
0.329868 0.540953 -0.31136
0.32026 0.546768 -0.308137
0.325095 0.538265 -0.310601
0.304457 0.483809 -0.149789
0.32342 0.481911 -0.149536
0.335051 0.470596 -0.246504
0.347062 0.485704 -0.149662
0.357492 0.477992 -0.247705
0.376899 0.504162 -0.150927
0.372222 0.487475 -0.249285
0.383788 0.499168 -0.256682
0.393207 0.528056 -0.15257
0.392448 0.512886 -0.26433
0.395546 0.498916 -0.311234
0.396747 0.538928 -0.153329
0.397758 0.534379 -0.268124
0.399402 0.513771 -0.311993
0.399908 0.551066 -0.138411
0.401615 0.522178 -0.3143
0.398769 0.548537 -0.31667
0.395989 0.556122 -0.271915
0.392701 0.566489 -0.273686
0.390679 0.569146 -0.321727
0.382967 0.603406 -0.142203
0.369186 0.59601 -0.273622
0.37064 0.614342 -0.142962
0.348895 0.600309 -0.327606
0.351108 0.62395 -0.143594
0.329552 0.602205 -0.327227
0.329931 0.627047 -0.143973
0.308185 0.598476 -0.325647
0.313811 0.62768 -0.128296
0.295607 0.59974 -0.26825
0.290487 0.6139 -0.143151
0.27007 0.568261 -0.272675
0.265107 0.558588 -0.318977
0.269564 0.604418 -0.0200763
0.265518 0.549801 -0.269135
0.264002 0.551573 -0.315406
0.26476 0.594809 -0.0200763
0.265265 0.555869 -0.154846
0.2683 0.541964 -0.153961
0.276895 0.525402 -0.152823
0.273704 0.518511 -0.252415
0.28625 0.515161 -0.152064
0.298009 0.508082 -0.151432
0.29232 0.499263 -0.248559
0.310778 0.50353 -0.151053
0.315139 0.490635 -0.246694
0.324052 0.502266 -0.151053
0.332586 0.491014 -0.246631
0.341374 0.5053 -0.151179
0.348958 0.496577 -0.247452
0.362485 0.506628 -0.249033
0.372694 0.521862 -0.251751
0.377942 0.546041 -0.218438
0.378037 0.585202 -0.0195706
0.363372 0.569145 -0.317018
0.363751 0.592976 -0.141445
0.351171 0.577426 -0.31844
0.351044 0.601636 -0.142077
0.335431 0.581851 -0.318947
0.336569 0.605935 -0.142456
0.323041 0.581914 -0.319579
0.321713 0.605556 -0.142456
0.308313 0.600688 -0.14214
0.29763 0.570883 -0.317208
0.296872 0.592155 -0.141571
0.287769 0.553406 -0.319262
0.285935 0.558652 -0.155035
0.285745 0.550434 -0.254975
0.29428 0.537349 -0.153582
0.290677 0.529574 -0.250866
0.298072 0.520281 -0.248969
0.309261 0.525465 -0.152697
0.309261 0.513454 -0.247547
0.324685 0.522619 -0.152317
0.325886 0.510895 -0.246789
0.340425 0.527361 -0.15276
0.341373 0.515857 -0.247452
0.354458 0.542343 -0.153708
0.354016 0.530079 -0.249791
0.356734 0.562635 -0.155099
0.348073 0.576983 -0.156173
0.345229 0.566047 -0.255701
0.332776 0.583683 -0.156616
0.333534 0.570662 -0.256333
0.324559 0.570472 -0.256112
0.320892 0.58242 -0.156616
0.309988 0.573223 -0.155984
0.315583 0.566743 -0.255227
0.307459 0.55508 -0.154751
0.3049 0.536844 -0.312561
0.313243 0.546262 -0.154214
0.313212 0.534789 -0.245841
0.322473 0.542785 -0.153834
0.334372 0.548395 -0.154166
0.326961 0.530838 -0.249949
0.332808 0.534189 -0.247705
0.336821 0.528119 -0.30978
0.336917 0.558746 -0.154877
0.335905 0.54838 -0.247168
0.330848 0.563962 -0.15532
0.32892 0.553579 -0.241179
0.325791 0.561907 -0.155194
0.311031 0.555364 -0.154846
0.311031 0.544871 -0.240436
0.310526 0.565099 -0.155478
0.316973 0.575466 -0.156173
0.314824 0.563045 -0.242427
0.329615 0.580145 -0.156363
0.326012 0.568418 -0.246757
0.343648 0.575782 -0.15611
0.34014 0.566395 -0.247042
0.349085 0.559157 -0.246188
0.352877 0.560675 -0.154972
0.353383 0.528815 -0.296
0.350159 0.541647 -0.153708
0.347125 0.527077 -0.241447
0.338592 0.529827 -0.152823
0.336064 0.519207 -0.235126
0.3238 0.515478 -0.240057
0.309829 0.529005 -0.152886
0.312294 0.518322 -0.235632
0.301739 0.522936 -0.242079
0.293584 0.532513 -0.24682
0.289728 0.564656 -0.155478
0.291688 0.547399 -0.154214
0.288275 0.545757 -0.303522
0.299273 0.586781 -0.156995
0.294722 0.561876 -0.304913
0.302687 0.569524 -0.308579
0.319627 0.599361 -0.157817
0.310905 0.575467 -0.30782
0.327655 0.588045 -0.256175
0.339666 0.599866 -0.157754
0.341121 0.586718 -0.256239
0.358251 0.590827 -0.157058
0.374054 0.563077 -0.155099
0.375254 0.538928 -0.304786
0.370325 0.535136 -0.153076
0.366848 0.518607 -0.245082
0.3616 0.522115 -0.152317
0.355153 0.50549 -0.242964
0.348958 0.512253 -0.151685
0.341121 0.497715 -0.241763
0.333535 0.506564 -0.151306
0.308503 0.50745 -0.151432
0.319849 0.495249 -0.238982
0.300538 0.499168 -0.242648
0.292952 0.514657 -0.151938
0.286378 0.508524 -0.244608
0.276011 0.534252 -0.153392
0.268425 0.559663 -0.155225
0.273608 0.525655 -0.248148
0.267256 0.534536 -0.306873
0.270955 0.577868 -0.156489
0.269184 0.554985 -0.310475
0.281701 0.598602 -0.15788
0.291182 0.585833 -0.316796
0.299842 0.615986 -0.143341
0.318805 0.622686 -0.14372
0.328794 0.607073 -0.264773
0.339098 0.623319 -0.143594
0.338719 0.598223 -0.319705
0.35882 0.617439 -0.143151
0.390932 0.55941 -0.313384
0.396495 0.538676 -0.309843
0.393459 0.57281 -0.155604
0.394724 0.546136 -0.153708
0.385622 0.519965 -0.152064
0.370955 0.493163 -0.235
0.35686 0.482037 -0.24366
0.335431 0.474705 -0.242585
0.324179 0.485199 -0.149789
0.312548 0.474325 -0.242712
0.29036 0.4809 -0.244165
0.270828 0.506185 -0.151432
0.27127 0.494048 -0.24682
0.257174 0.511684 -0.25567
0.258438 0.520408 -0.136893
0.249208 0.539941 -0.138221
0.246238 0.558272 -0.139422
0.245542 0.542722 -0.313131
0.247691 0.577173 -0.140749
0.249462 0.561179 -0.316671
0.265392 0.614658 -0.143215
0.269563 0.593671 -0.323118
0.279045 0.630461 -0.128549
0.290676 0.608968 -0.326152
0.30294 0.642724 -0.129182
0.309515 0.616302 -0.327795
0.329489 0.61845 -0.328301
0.322915 0.647403 -0.129561
0.343648 0.646391 -0.129434
0.392701 0.621991 -0.127538
0.400413 0.583557 -0.322485
0.40231 0.593165 -0.216921
0.406104 0.605682 -0.126274
0.413182 0.559157 -0.318314
0.415963 0.562951 -0.154846
0.410528 0.513139 -0.264204
0.389289 0.492152 -0.150042
0.39049 0.481595 -0.253331
0.365773 0.475212 -0.148904
0.365268 0.463074 -0.244861
0.344913 0.455362 -0.243597
0.349338 0.467562 -0.132911
0.323294 0.464717 -0.148272
0.323168 0.452833 -0.24328
0.301675 0.45296 -0.253963
0.301169 0.465982 -0.132848
0.316278 0.454351 -0.302447
0.304457 0.471418 -0.246884
0.353605 0.460356 -0.303902
0.372347 0.471228 -0.305418
0.383535 0.481848 -0.306935
0.288275 0.487727 -0.303017
0.30215 0.477802 -0.304122
0.330911 0.475511 -0.303411
0.350222 0.482481 -0.303333
0.367623 0.497493 -0.305055
0.379585 0.52066 -0.309907
0.379996 0.543765 -0.315122
0.373422 0.556787 -0.314932
0.309641 0.577695 -0.31806
0.311537 0.534379 -0.298465
0.305215 0.509093 -0.293598
0.314003 0.483397 -0.295432
0.275379 0.567374 -0.314648
0.282585 0.576921 -0.316544
0.313306 0.596833 -0.3192
0.371462 0.58343 -0.319072
0.381734 0.5718 -0.317619
0.371462 0.479383 -0.30112
0.346682 0.464971 -0.297201
0.323547 0.460926 -0.296696
0.29763 0.465666 -0.300046
0.278413 0.474326 -0.299602
0.261093 0.491141 -0.303017
0.2518 0.509505 -0.308737
0.349718 0.616554 -0.328048
0.368934 0.609474 -0.327037
0.385622 0.597338 -0.327101
0.351992 0.444995 -0.300362
0.322662 0.439559 -0.298275
0.37279 0.518385 -0.299666
0.246554 0.524264 -0.309464
0.417482 0.524517 -0.312118
0.410274 0.496956 -0.308832
0.400919 0.481406 -0.306683
0.302496 0.452455 -0.305481
0.300664 0.441708 -0.299603
0.39365 0.481216 -0.311297
0.402467 0.497145 -0.314142
0.397379 0.565226 -0.325394
0.374971 0.588615 -0.327543
0.376899 0.595947 -0.331336
0.256542 0.554796 -0.322486
0.303508 0.469743 -0.305765
0.386981 0.544651 -0.318093
0.343396 0.583999 -0.324193
0.309498 0.587208 -0.32428
0.293837 0.574077 -0.322232
0.30041 0.520597 -0.306304
0.300917 0.557388 -0.314142
0.332269 0.572622 -0.316607
0.354521 0.56137 -0.316006
0.354522 0.499736 -0.305797
0.278698 0.510262 -0.307568
0.389352 0.517026 -0.312309
0.357808 0.473472 -0.303838
0.325949 0.467293 -0.30496
0.289665 0.598191 -0.331131
0.315424 0.60998 -0.333042
0.399907 0.570155 -0.326911
0.408632 0.536401 -0.321411
0.369629 0.460166 -0.307757
0.322536 0.442214 -0.303079
0.297756 0.567881 -0.322106
0.330848 0.449989 -0.305576
0.397285 0.556502 -0.320053
0.383347 0.57812 -0.321727
0.328335 0.605097 -0.331952
0.29153 0.592218 -0.327068
0.281573 0.58204 -0.321474
0.272345 0.572401 -0.321665
0.260966 0.53874 -0.315849
0.261599 0.520787 -0.314142
0.262483 0.531849 -0.311612
0.273609 0.498031 -0.308231
0.28505 0.484661 -0.307284
0.368776 0.567975 -0.320811
0.312358 0.540888 -0.302511
0.309515 0.543039 -0.295874
0.312295 0.550307 -0.29758
0.321176 0.553847 -0.305071
0.319881 0.557293 -0.29856
0.332523 0.554543 -0.306778
0.32971 0.559726 -0.299477
0.338908 0.558115 -0.29856
0.346967 0.551003 -0.301499
0.344913 0.544113 -0.30722
0.352656 0.541489 -0.299286
0.351645 0.527709 -0.301531
0.345039 0.518701 -0.302763
0.334104 0.509726 -0.301626
0.342258 0.511116 -0.294925
0.322725 0.508082 -0.302195
0.31811 0.505046 -0.297959
0.307807 0.509725 -0.300772
0.298041 0.515762 -0.29954
0.292035 0.524532 -0.301057
0.292667 0.535325 -0.307789
0.292478 0.549991 -0.309148
0.321208 0.574645 -0.314553
0.337581 0.577552 -0.311361
0.348074 0.575846 -0.308642
0.354111 0.567786 -0.313952
0.359958 0.567628 -0.309464
0.367923 0.555112 -0.310601
0.370451 0.530206 -0.30997
0.368302 0.512854 -0.304881
0.36021 0.498094 -0.297833
0.351993 0.493005 -0.301025
0.339145 0.485735 -0.294831
0.33679 0.488675 -0.303175
0.319691 0.486589 -0.302985
0.299842 0.488154 -0.299097
0.292321 0.497714 -0.306555
0.285146 0.497241 -0.300077
0.273736 0.510989 -0.301753
0.272155 0.535958 -0.312941
0.284797 0.572779 -0.320179
0.304205 0.59266 -0.319831
0.338939 0.590416 -0.325284
0.35844 0.592406 -0.31882
0.394914 0.532607 -0.311677
0.392702 0.511621 -0.306683
0.38322 0.49468 -0.305671
0.379554 0.487473 -0.302384
0.334988 0.463706 -0.301373
0.312105 0.4632 -0.301499
0.281195 0.477202 -0.306114
0.262989 0.491709 -0.307378
0.248008 0.535959 -0.315975
0.251738 0.559789 -0.320653
0.257173 0.578626 -0.32021
0.270828 0.587192 -0.327732
0.291877 0.606124 -0.329819
0.332776 0.614848 -0.331905
0.367859 0.606631 -0.330704
0.398391 0.581345 -0.326342
0.410781 0.557577 -0.322107
0.415078 0.530775 -0.317492
0.41293 0.510356 -0.313763
0.371589 0.454604 -0.304028
0.386286 0.465287 -0.304913
0.285239 0.617818 -0.0200763
0.277907 0.610233 -0.0200763
0.292321 0.598602 -0.0198235
0.297629 0.604165 -0.0198235
0.358061 0.575086 -0.0195706
0.378795 0.560674 -0.0193178
0.37829 0.571294 -0.0193178
0.327972 0.59443 -0.0198235
0.308249 0.606945 -0.0198235
0.304457 0.604923 -0.0198235
0.301422 0.602649 -0.0198235
0.319249 0.592155 -0.0198235
0.323673 0.568514 -0.0195706
0.312548 0.582167 -0.0198235
0.309261 0.564594 -0.0198235
0.309387 0.576035 -0.0198235
0.315077 0.584947 -0.0198235
0.326203 0.571547 -0.0195706
0.3415 0.587982 -0.0195706
0.3482 0.583178 -0.0195706
0.329743 0.59051 -0.0198235
0.323673 0.589499 -0.0198235
0.356039 0.566996 -0.0195706
0.353637 0.575719 -0.0195706
0.355028 0.554353 -0.0195706
0.355786 0.558147 -0.0195706
0.337329 0.568261 -0.0195706
0.33834 0.565226 -0.0195706
0.352498 0.548537 -0.0195706
0.336568 0.556883 -0.0195706
0.350223 0.544997 -0.0195706
0.33834 0.561179 -0.0195706
0.33404 0.553595 -0.0195706
0.330374 0.551192 -0.0195706
0.33581 0.533871 -0.0195706
0.346935 0.541205 -0.0195706
0.343902 0.538423 -0.0195706
0.32342 0.549548 -0.0195706
0.3305 0.532355 -0.0195706
0.316594 0.550559 -0.0195706
0.324937 0.531344 -0.0195706
0.306227 0.559916 -0.0198235
0.297123 0.541964 -0.0198235
0.301675 0.53817 -0.0195706
0.306732 0.535137 -0.0195706
0.319627 0.531596 -0.0195706
0.287769 0.557136 -0.0198235
0.293332 0.546263 -0.0198235
0.287769 0.583178 -0.0198235
0.285745 0.569525 -0.0198235
0.307238 0.581409 -0.0198235
0.296365 0.597339 -0.0198235
0.310273 0.585708 -0.0198235
0.313811 0.588993 -0.0198235
0.298389 0.599866 -0.0198235
0.312674 0.609349 -0.0198235
0.343397 0.591523 -0.0195706
0.322915 0.612255 -0.0198235
0.376013 0.580145 -0.0195706
0.359577 0.603407 -0.0195706
0.370197 0.592029 -0.0195706
0.331766 0.613013 -0.0198235
0.338845 0.612255 -0.0198235
0.346177 0.610486 -0.0195706
0.353003 0.607451 -0.0195706
0.354775 0.581661 -0.0195706
0.348452 0.588235 -0.0195706
0.377279 0.576225 -0.0194442
0.375507 0.544997 -0.0193178
0.376771 0.549043 -0.0193178
0.359577 0.556375 -0.0195706
0.360085 0.566742 -0.0195706
0.360085 0.561179 -0.0195706
0.371716 0.537159 -0.0193178
0.358061 0.551065 -0.0195706
0.355786 0.546516 -0.0195706
0.353003 0.541964 -0.0195706
0.366659 0.529827 -0.0193178
0.34896 0.537665 -0.0195706
0.350982 0.516677 -0.0193178
0.327467 0.527803 -0.0195706
0.320388 0.52755 -0.0195706
0.311284 0.510104 -0.0195706
0.329489 0.509345 -0.0195706
0.309007 0.53008 -0.0195706
0.33834 0.511115 -0.0193178
0.346682 0.514403 -0.0193178
0.301169 0.513139 -0.0195706
0.291309 0.542975 -0.0198235
0.296365 0.515414 -0.0195706
0.303191 0.532607 -0.0195706
0.285998 0.521735 -0.0198235
0.291308 0.518196 -0.0195706
0.266529 0.589499 -0.0200763
0.263241 0.57281 -0.0200763
0.265265 0.553595 -0.0198235
0.279171 0.528056 -0.0198235
0.273356 0.535643 -0.0198235
0.271586 0.600877 -0.0200763
0.282965 0.579384 -0.0198235
0.284987 0.58596 -0.0198235
0.288275 0.592534 -0.0198235
0.355786 0.630715 -0.0198235
0.345166 0.633748 -0.0198235
0.334293 0.635265 -0.0198235
0.365645 0.625911 -0.0195706
0.356292 0.609728 -0.0195706
0.362865 0.605176 -0.0195706
0.375002 0.61959 -0.0195706
0.32342 0.635012 -0.0198235
0.3128 0.63299 -0.0198235
0.34896 0.613266 -0.0195706
0.390426 0.525023 -0.0193178
0.362613 0.520471 -0.0193178
0.355281 0.514908 -0.0193178
0.337073 0.657263 -0.0198235
0.322915 0.65701 -0.0198235
0.308754 0.654735 -0.0200763
0.313306 0.636531 -0.0198235
0.302433 0.63299 -0.0200763
0.351487 0.655241 -0.0198235
0.423297 0.556375 -0.0190649
0.398769 0.533618 -0.0193178
0.392954 0.522493 -0.0193178
0.420768 0.541205 -0.0190649
0.416216 0.526539 -0.0190649
0.385622 0.512381 -0.0193178
0.376518 0.503277 -0.0193178
0.31141 0.553721 -0.0195706
0.361349 0.524012 -0.0193178
0.344155 0.533871 -0.0195706
0.339098 0.531091 -0.0195706
0.295987 0.537917 -0.0196971
0.293332 0.624139 -0.0200763
0.303699 0.608717 -0.0198235
0.310273 0.612255 -0.0198235
0.302939 0.629449 -0.0200763
0.317605 0.614785 -0.0198235
0.32519 0.616302 -0.0198235
0.333282 0.616554 -0.0198235
0.34112 0.615543 -0.0198235
0.368934 0.599361 -0.0195706
0.399022 0.582167 -0.0193178
0.395231 0.592787 -0.0193178
0.389921 0.602901 -0.0195706
0.383094 0.61175 -0.0195706
0.374496 0.534632 -0.0193178
0.369186 0.527045 -0.0193178
0.395736 0.535895 -0.0193178
0.378543 0.542722 -0.0193178
0.38107 0.55132 -0.0193178
0.399527 0.547274 -0.0193178
0.382334 0.559916 -0.0193178
0.401046 0.559157 -0.0193178
0.382334 0.568767 -0.0193178
0.401046 0.570788 -0.0193178
0.380817 0.577109 -0.0193178
0.373991 0.592787 -0.0195706
0.346935 0.510609 -0.0193178
0.342636 0.489371 -0.0193178
0.375002 0.506565 -0.0193178
0.354267 0.493415 -0.0193178
0.36514 0.499231 -0.0193178
0.3836 0.515161 -0.0193178
0.337834 0.507323 -0.0193178
0.317605 0.486842 -0.0195706
0.330247 0.487094 -0.0193178
0.328478 0.505805 -0.0195706
0.318869 0.505552 -0.0195706
0.309262 0.506818 -0.0195706
0.299906 0.509598 -0.0195706
0.292826 0.492404 -0.0195706
0.304963 0.488611 -0.0195706
0.290802 0.51415 -0.0195706
0.282965 0.519713 -0.0198235
0.275633 0.526792 -0.0198235
0.265013 0.543733 -0.0198235
0.261725 0.553595 -0.0198235
0.243267 0.588741 -0.0200763
0.247566 0.536401 -0.0198235
0.241245 0.575593 -0.0200763
0.241245 0.561938 -0.0200763
0.24352 0.549043 -0.0200763
0.253634 0.52477 -0.0198235
0.269564 0.534884 -0.0198235
0.261472 0.514403 -0.0198235
0.270828 0.505299 -0.0198235
0.281195 0.497967 -0.0195706
0.259955 0.563709 -0.0198235
0.259955 0.574329 -0.0200763
0.261472 0.584694 -0.0200763
0.247313 0.601888 -0.0200763
0.275885 0.613266 -0.0200763
0.283723 0.621106 -0.0200763
0.261472 0.625152 -0.0200763
0.253634 0.614027 -0.0200763
0.292574 0.62768 -0.0200763
0.282712 0.64361 -0.0200763
0.271334 0.635265 -0.0200763
0.295354 0.650184 -0.0200763
0.398769 0.593292 -0.0193178
0.402563 0.581914 -0.0193178
0.416216 0.600624 -0.0193178
0.409389 0.613774 -0.0193178
0.393459 0.603912 -0.0195706
0.400794 0.625658 -0.0195706
0.38638 0.613266 -0.0195706
0.378037 0.621612 -0.0195706
0.368428 0.628438 -0.0195706
0.390174 0.636023 -0.0195706
0.37829 0.644368 -0.0195706
0.358061 0.633495 -0.0198235
0.365393 0.650942 -0.0198235
0.347188 0.637036 -0.0198235
0.324431 0.6383 -0.0198235
0.33581 0.638553 -0.0198235
0.402563 0.545505 -0.0193178
0.404585 0.557641 -0.0193178
0.423297 0.571547 -0.0193178
0.404585 0.569778 -0.0193178
0.42102 0.586466 -0.0193178
0.302433 0.485578 -0.0195706
0.299653 0.46712 -0.0195706
0.314825 0.464843 -0.0193178
0.331005 0.464843 -0.0193178
0.346682 0.467626 -0.0193178
0.362107 0.472683 -0.0193178
0.316341 0.483556 -0.0193178
0.329489 0.483556 -0.0193178
0.342383 0.485578 -0.0193178
0.376013 0.479762 -0.0190649
0.354775 0.489877 -0.0193178
0.388657 0.489119 -0.0190649
0.399783 0.500244 -0.0190649
0.409137 0.512886 -0.0190649
0.366153 0.495692 -0.0193178
0.359072 0.489876 -0.118688
0.265265 0.565478 -0.155604
0.353383 0.511178 -0.135882
0.366405 0.522493 -0.136641
0.375698 0.538992 -0.137778
0.291308 0.58242 -0.156616
0.380817 0.603912 -0.126274
0.392765 0.533367 -0.137336
0.379301 0.511115 -0.151306
0.362676 0.496387 -0.134807
0.341499 0.487284 -0.134175
0.301169 0.488359 -0.150168
0.281447 0.496704 -0.134997
0.256478 0.601319 -0.142393
0.369944 0.638299 -0.128802
0.413246 0.584759 -0.140686
0.414826 0.535705 -0.137336
0.403764 0.509156 -0.135503
0.380185 0.481911 -0.118056
0.330752 0.463074 -0.116918
0.287264 0.546516 -0.122734
0.297123 0.511622 -0.120458
0.374875 0.557387 -0.154593
0.376518 0.563709 -0.123745
0.355786 0.566363 -0.155352
0.327972 0.58735 -0.125515
0.305595 0.59304 -0.157501
0.303191 0.59582 -0.126021
0.32026 0.582167 -0.156616
0.322915 0.559916 -0.155099
0.313053 0.571799 -0.155857
0.311031 0.555364 -0.154846
0.324684 0.562951 -0.123745
0.312295 0.574582 -0.124504
0.326961 0.566237 -0.123998
0.314064 0.576604 -0.124757
0.326203 0.565478 -0.123998
0.332777 0.566237 -0.123998
0.316088 0.578626 -0.124757
0.330752 0.566995 -0.123998
0.31533 0.577868 -0.124757
0.340488 0.57812 -0.156236
0.329743 0.580398 -0.156363
0.354267 0.556122 -0.154593
0.322662 0.579131 -0.156363
0.349148 0.57022 -0.155731
0.356292 0.56219 -0.0195706
0.353256 0.54879 -0.154214
0.337073 0.561938 -0.123745
0.354775 0.552331 -0.122987
0.353256 0.547274 -0.122734
0.337834 0.559916 -0.123492
0.353762 0.551065 -0.0195706
0.336568 0.551826 -0.122987
0.349337 0.539941 -0.153455
0.337834 0.555364 -0.123239
0.352498 0.545505 -0.122481
0.334925 0.548032 -0.154214
0.333029 0.545757 -0.154087
0.33581 0.528561 -0.152823
0.344661 0.534379 -0.153076
0.345166 0.53539 -0.121722
0.336062 0.529574 -0.121469
0.333407 0.527803 -0.152823
0.317731 0.543607 -0.153834
0.316088 0.545505 -0.122734
0.328224 0.526413 -0.15257
0.325442 0.527045 -0.121217
0.313813 0.545756 -0.154087
0.295607 0.582672 -0.156616
0.320132 0.526034 -0.15257
0.291814 0.547399 -0.154214
0.305089 0.531597 -0.153013
0.296366 0.539056 -0.122228
0.289728 0.564529 -0.155478
0.307743 0.574835 -0.124757
0.294848 0.586971 -0.125515
0.307238 0.573569 -0.124504
0.293585 0.594051 -0.0198235
0.311537 0.579639 -0.125009
0.2994 0.592281 -0.125768
0.31457 0.582167 -0.125009
0.299147 0.592281 -0.125768
0.297123 0.589751 -0.125768
0.310778 0.578879 -0.125009
0.295607 0.588235 -0.125515
0.313811 0.581661 -0.125009
0.298136 0.591018 -0.125768
0.30079 0.593545 -0.125894
0.316847 0.583683 -0.125262
0.301675 0.594303 -0.126021
0.318363 0.584694 -0.125262
0.314191 0.599929 -0.14214
0.342131 0.584694 -0.125262
0.372474 0.570788 -0.155604
0.323673 0.600624 -0.15788
0.363623 0.590762 -0.125515
0.338087 0.600624 -0.15788
0.355533 0.592913 -0.157185
0.356039 0.570788 -0.124251
0.353889 0.570283 -0.155731
0.376013 0.565731 -0.123745
0.314825 0.602141 -0.126527
0.343397 0.584189 -0.125262
0.374244 0.569271 -0.139864
0.376771 0.555111 -0.122987
0.357808 0.566237 -0.123998
0.372222 0.539814 -0.153455
0.375002 0.544744 -0.122481
0.374749 0.552331 -0.15434
0.357555 0.558652 -0.154846
0.358819 0.557136 -0.123239
0.373233 0.543227 -0.153582
0.35566 0.543986 -0.153834
0.370072 0.534883 -0.153076
0.368175 0.530838 -0.152823
0.352498 0.538045 -0.153455
0.351992 0.537412 -0.121975
0.363623 0.524264 -0.152317
0.350982 0.535643 -0.153329
0.364887 0.525023 -0.120964
0.3238 0.522746 -0.152317
0.333535 0.529069 -0.0195706
0.32064 0.505299 -0.119952
0.340741 0.509093 -0.151432
0.310526 0.52477 -0.15257
0.303572 0.509093 -0.151559
0.305216 0.527045 -0.152823
0.271334 0.579384 -0.156616
0.269247 0.552963 -0.154783
0.29409 0.513897 -0.151812
0.27538 0.531091 -0.121722
0.275379 0.533872 -0.153329
0.275885 0.590004 -0.157374
0.28739 0.573317 -0.15611
0.281701 0.598602 -0.15788
0.281954 0.572052 -0.0198235
0.312548 0.574835 -0.124504
0.333788 0.548285 -0.122734
0.34643 0.536275 -0.153202
0.34896 0.539434 -0.121975
0.325695 0.542722 -0.153834
0.325442 0.544238 -0.122481
0.322914 0.526034 -0.15257
0.349971 0.512886 -0.151559
0.363623 0.524264 -0.152317
0.33834 0.525781 -0.15257
0.300917 0.510356 -0.151685
0.296618 0.533618 -0.153329
0.287264 0.546516 -0.122734
0.297123 0.511622 -0.120458
0.285745 0.551573 -0.0198235
0.297123 0.511622 -0.120458
0.287264 0.546516 -0.122734
0.357555 0.576604 -0.0195706
0.37829 0.571294 -0.0193178
0.317605 0.591523 -0.0198235
0.301422 0.602649 -0.0198235
0.312548 0.582167 -0.0198235
0.323673 0.568514 -0.0195706
0.323673 0.568514 -0.0195706
0.312548 0.582167 -0.0198235
0.312548 0.582167 -0.0198235
0.326203 0.571547 -0.0195706
0.326203 0.571547 -0.0195706
0.312548 0.582167 -0.0198235
0.326203 0.571547 -0.0195706
0.312548 0.582167 -0.0198235
0.316088 0.578626 -0.124757
0.332777 0.566237 -0.123998
0.331005 0.573063 -0.0195706
0.332777 0.566237 -0.123998
0.316088 0.578626 -0.124757
0.331005 0.573063 -0.0195706
0.315077 0.584947 -0.0198235
0.315077 0.584947 -0.0198235
0.331005 0.573063 -0.0195706
0.31811 0.586971 -0.0198235
0.355786 0.558147 -0.0195706
0.337329 0.568261 -0.0195706
0.337329 0.568261 -0.0195706
0.355786 0.558147 -0.0195706
0.33834 0.565226 -0.0195706
0.353762 0.551065 -0.0195706
0.353762 0.551065 -0.0195706
0.33834 0.565226 -0.0195706
0.350223 0.544997 -0.0195706
0.336568 0.556883 -0.0195706
0.33834 0.561179 -0.0195706
0.353762 0.551065 -0.0195706
0.353762 0.551065 -0.0195706
0.33834 0.561179 -0.0195706
0.336568 0.556883 -0.0195706
0.350223 0.544997 -0.0195706
0.33404 0.553595 -0.0195706
0.345924 0.540447 -0.0195706
0.32342 0.549548 -0.0195706
0.33581 0.533871 -0.0195706
0.324937 0.531344 -0.0195706
0.31533 0.551065 -0.0195706
0.31533 0.551065 -0.0195706
0.324937 0.531344 -0.0195706
0.293585 0.594051 -0.0198235
0.307238 0.581409 -0.0198235
0.307238 0.581409 -0.0198235
0.293585 0.594051 -0.0198235
0.293585 0.594051 -0.0198235
0.307238 0.581409 -0.0198235
0.304205 0.57281 -0.0198235
0.296365 0.597339 -0.0198235
0.310273 0.585708 -0.0198235
0.313811 0.588993 -0.0198235
0.298389 0.599866 -0.0198235
0.298389 0.599866 -0.0198235
0.313811 0.588993 -0.0198235
0.313811 0.588993 -0.0198235
0.298389 0.599866 -0.0198235
0.310273 0.585708 -0.0198235
0.296365 0.597339 -0.0198235
0.296365 0.597339 -0.0198235
0.310273 0.585708 -0.0198235
0.307238 0.581409 -0.0198235
0.293585 0.594051 -0.0198235
0.298389 0.599866 -0.0198235
0.313811 0.588993 -0.0198235
0.310273 0.585708 -0.0198235
0.296365 0.597339 -0.0198235
0.301422 0.602649 -0.0198235
0.317605 0.591523 -0.0198235
0.317605 0.591523 -0.0198235
0.301422 0.602649 -0.0198235
0.301422 0.602649 -0.0198235
0.317605 0.591523 -0.0198235
0.314317 0.609981 -0.0198235
0.343397 0.591523 -0.0195706
0.37829 0.571294 -0.0193178
0.357555 0.576604 -0.0195706
0.348452 0.588235 -0.0195706
0.37829 0.571294 -0.0193178
0.343397 0.591523 -0.0195706
0.314317 0.609981 -0.0198235
0.37829 0.571294 -0.0193178
0.348452 0.588235 -0.0195706
0.358566 0.573569 -0.0195706
0.378795 0.560674 -0.0193178
0.378795 0.560674 -0.0193178
0.358566 0.573569 -0.0195706
0.360085 0.561179 -0.0195706
0.376771 0.549043 -0.0193178
0.376771 0.549043 -0.0193178
0.360085 0.561179 -0.0195706
0.366659 0.529827 -0.0193178
0.353003 0.541964 -0.0195706
0.353003 0.541964 -0.0195706
0.366659 0.529827 -0.0193178
0.312548 0.582167 -0.0198235
0.326203 0.571547 -0.0195706
0.345924 0.540447 -0.0195706
0.33404 0.553595 -0.0195706
0.33581 0.533871 -0.0195706
0.32342 0.549548 -0.0195706
0.342819 0.476831 0.272962
0.397221 0.594208 0.285446
0.379435 0.621532 0.287603
0.353572 0.633749 0.289477
0.325317 0.636135 0.289019
0.288685 0.621169 0.28641
0.26577 0.604671 0.283534
0.261915 0.543749 0.276944
0.27756 0.512569 0.273026
0.333851 0.496988 0.271066
0.384713 0.544397 0.276391
0.384089 0.566316 0.278051
0.375816 0.589104 0.280547
0.349907 0.611656 0.282935
0.299463 0.596263 0.280121
0.278793 0.579006 0.277213
0.286725 0.569429 0.27756
0.29074 0.546135 0.274621
0.302434 0.532481 0.272978
0.317353 0.527045 0.272283
0.339508 0.531154 0.272599
0.353257 0.543859 0.273736
0.356544 0.56453 0.275664
0.348769 0.580017 0.277087
0.328541 0.587098 0.277214
0.294438 0.567217 0.270323
0.306321 0.568354 0.274273
0.309071 0.554543 0.272473
0.311315 0.537933 0.265756
0.317795 0.547653 0.271399
0.343838 0.541711 0.262167
0.327972 0.547906 0.271272
0.346682 0.550307 0.26691
0.345292 0.57259 0.267826
0.33679 0.559679 0.272188
0.333282 0.5675 0.272725
0.334277 0.580334 0.267857
0.320528 0.576098 0.267731
0.317352 0.495692 0.115705
0.305216 0.495692 0.214316
0.329489 0.495692 0.115705
0.341372 0.497714 0.115705
0.352751 0.501508 0.115705
0.363371 0.507071 0.115705
0.37298 0.513897 0.115705
0.381323 0.52224 0.115705
0.388149 0.531596 0.115705
0.401552 0.563962 0.084351
0.401552 0.575593 0.084351
0.395863 0.575088 0.232775
0.391627 0.591776 0.280627
0.396242 0.598097 0.084351
0.37712 0.611813 0.283629
0.376265 0.625405 0.0840982
0.366912 0.631726 0.0840982
0.35705 0.636783 0.0838453
0.303699 0.636278 0.0835925
0.29409 0.631221 0.0835925
0.285492 0.6249 0.0835925
0.268425 0.588614 0.277908
0.267287 0.599613 0.0835925
0.267793 0.578627 0.230498
0.262736 0.579892 0.0835925
0.264254 0.559916 0.0838453
0.279929 0.535643 0.115199
0.286505 0.529069 0.115452
0.293837 0.524012 0.115452
0.30218 0.519965 0.115452
0.315582 0.514466 0.212799
0.310778 0.517185 0.115452
0.319627 0.515919 0.115452
0.32873 0.516172 0.115705
0.337329 0.517691 0.115705
0.345671 0.520724 0.115705
0.353256 0.52477 0.115705
0.360338 0.529827 0.115705
0.366153 0.535895 0.115705
0.370955 0.542722 0.115705
0.374749 0.550307 0.115705
0.380312 0.566237 0.084351
0.376013 0.59051 0.0840982
0.31811 0.618829 0.0838453
0.29156 0.596325 0.115199
0.288022 0.56219 0.204708
0.286378 0.571041 0.115199
0.29605 0.548033 0.203064
0.295859 0.548537 0.115452
0.313939 0.53678 0.201611
0.310778 0.53893 0.115452
0.337137 0.538456 0.201705
0.329047 0.537096 0.115452
0.351613 0.549802 0.202685
0.347378 0.546483 0.115705
0.357745 0.567059 0.115578
0.353763 0.584 0.115452
0.339666 0.592913 0.206478
0.342005 0.595379 0.115452
0.326709 0.594809 0.206225
0.322094 0.596453 0.115325
0.308501 0.585455 0.115199
0.307712 0.569903 0.115357
0.320134 0.556882 0.115452
0.333377 0.56137 0.115452
0.327719 0.575245 0.201484
0.335748 0.575023 0.115452
0.327513 0.577141 0.115452
0.326581 0.566743 0.272094
0.311284 0.569272 0.115452
0.31002 0.577615 0.115199
0.315583 0.588741 0.115199
0.326739 0.593798 0.115388
0.345924 0.585707 0.206288
0.343838 0.589879 0.115452
0.35234 0.575181 0.203539
0.352814 0.576983 0.115452
0.347915 0.552204 0.195289
0.350222 0.556882 0.115452
0.33404 0.540953 0.194341
0.317857 0.539877 0.194657
0.331575 0.541458 0.115452
0.303572 0.546135 0.195542
0.308249 0.544145 0.115452
0.292699 0.560106 0.115199
0.289033 0.575593 0.115199
0.29567 0.595758 0.115199
0.309008 0.609348 0.115199
0.326328 0.614658 0.115199
0.356039 0.602521 0.204834
0.351677 0.608937 0.115452
0.374244 0.562318 0.266278
0.373042 0.579606 0.115641
0.36767 0.544238 0.199651
0.371083 0.551004 0.115705
0.348074 0.525907 0.197818
0.355406 0.531027 0.115705
0.323357 0.519081 0.197375
0.331576 0.520345 0.115641
0.299652 0.524706 0.198007
0.300853 0.524896 0.115452
0.280625 0.540952 0.20003
0.276896 0.546009 0.115199
0.271018 0.564088 0.208058
0.269184 0.573317 0.269185
0.269374 0.573696 0.115199
0.281954 0.612761 0.115199
0.301296 0.623382 0.21065
0.287011 0.621864 0.0835925
0.319374 0.629829 0.211788
0.313559 0.636278 0.0838453
0.323926 0.638047 0.0838453
0.333661 0.624519 0.278034
0.357429 0.624772 0.211914
0.364382 0.629449 0.0840982
0.37437 0.607136 0.276264
0.38107 0.616049 0.0840982
0.373233 0.623381 0.0840982
0.387644 0.607451 0.0840982
0.392701 0.597844 0.084351
0.392954 0.556502 0.215834
0.398264 0.576604 0.084351
0.382272 0.530585 0.203065
0.396747 0.5541 0.084351
0.379554 0.525023 0.115705
0.354016 0.505932 0.200536
0.371716 0.51693 0.115705
0.362613 0.510104 0.115705
0.352498 0.504794 0.115705
0.341878 0.501255 0.115705
0.324431 0.498599 0.199904
0.330247 0.498978 0.115705
0.318616 0.498725 0.115705
0.294152 0.504984 0.200536
0.306985 0.500497 0.115452
0.295607 0.503783 0.115452
0.284987 0.509093 0.115452
0.272724 0.518954 0.202179
0.27538 0.515919 0.115452
0.25869 0.537286 0.204329
0.266782 0.524264 0.115199
0.251357 0.558399 0.217098
0.246808 0.555617 0.0835925
0.248072 0.574456 0.114946
0.252559 0.588298 0.277086
0.256667 0.618071 0.0835925
0.273861 0.638553 0.0835925
0.264254 0.628944 0.0835925
0.313781 0.640765 0.285905
0.309515 0.657263 0.0835925
0.323168 0.65954 0.0838453
0.329741 0.645 0.283472
0.350729 0.657516 0.0838453
0.363876 0.653472 0.0838453
0.355786 0.641081 0.283472
0.376518 0.647403 0.0840982
0.389479 0.62041 0.282522
0.405723 0.599108 0.279805
0.412551 0.579892 0.279426
0.41293 0.605176 0.084351
0.419504 0.577362 0.084351
0.415205 0.559663 0.275885
0.415078 0.555997 0.115957
0.405029 0.530016 0.212799
0.406229 0.529194 0.115957
0.387517 0.50492 0.204961
0.389415 0.506059 0.115957
0.364887 0.488486 0.203317
0.372474 0.492152 0.115957
0.359577 0.485578 0.115705
0.344913 0.480773 0.202432
0.345419 0.481026 0.115705
0.323547 0.478372 0.202179
0.330752 0.478499 0.115705
0.316088 0.478499 0.115705
0.300664 0.47698 0.0840982
0.303699 0.483808 0.272346
0.330785 0.495155 0.209101
0.357176 0.502645 0.210018
0.375698 0.51611 0.211409
0.388909 0.533619 0.218362
0.394978 0.549169 0.219879
0.398897 0.545061 0.276707
0.360906 0.621991 0.283344
0.324305 0.628944 0.283471
0.286252 0.613013 0.28107
0.264633 0.565763 0.274811
0.270069 0.552267 0.217098
0.281417 0.53324 0.212357
0.298894 0.519523 0.213305
0.332776 0.515919 0.202685
0.348832 0.520851 0.208248
0.362106 0.531344 0.204202
0.373611 0.549359 0.213748
0.376771 0.565858 0.22304
0.377278 0.572306 0.274748
0.321587 0.608527 0.277402
0.314697 0.589372 0.20534
0.311284 0.579764 0.275885
0.310651 0.562065 0.201547
0.323358 0.555332 0.200568
0.332777 0.557641 0.200663
0.335178 0.573507 0.2018
0.311663 0.567881 0.202306
0.315076 0.58735 0.192887
0.325444 0.593608 0.193519
0.336758 0.59304 0.194088
0.337075 0.535262 0.258628
0.323673 0.531596 0.258565
0.312294 0.533683 0.258881
0.298831 0.542406 0.259261
0.293331 0.559442 0.202622
0.294595 0.585263 0.265582
0.307681 0.598728 0.267984
0.31811 0.609981 0.204455
0.336189 0.610928 0.205214
0.372474 0.547399 0.264759
0.354774 0.522304 0.264002
0.341121 0.514024 0.261726
0.301833 0.515857 0.262927
0.389983 0.53738 0.269817
0.37829 0.516045 0.268174
0.346367 0.494364 0.265898
0.324021 0.490951 0.266087
0.306859 0.491899 0.265645
0.264158 0.520123 0.269501
0.252685 0.540637 0.271334
0.24883 0.564341 0.274242
0.377405 0.487411 0.269817
0.351677 0.474325 0.268426
0.323041 0.469142 0.266404
0.302686 0.480268 0.202432
0.305879 0.624487 0.282902
0.296808 0.510231 0.269817
0.350475 0.510231 0.270892
0.368649 0.527519 0.271493
0.378732 0.549738 0.273673
0.307871 0.603785 0.276644
0.313085 0.561464 0.260399
0.323073 0.583747 0.261252
0.333977 0.585201 0.260714
0.353193 0.556566 0.260273
0.289791 0.569713 0.263385
0.31811 0.602141 0.271967
0.331005 0.605934 0.267542
0.3537 0.598665 0.268363
0.366406 0.586466 0.268426
0.371336 0.57458 0.268869
0.275284 0.589057 0.273325
0.285683 0.605493 0.274937
0.355185 0.618893 0.277813
0.389415 0.586466 0.273736
0.394155 0.560737 0.272725
0.266782 0.616049 0.279046
0.292731 0.634096 0.28385
0.302275 0.47442 0.271176
0.293774 0.6029 0.280689
0.36827 0.488138 0.274526
0.398422 0.516386 0.276708
0.264127 0.589815 0.28227
0.306953 0.503088 0.271809
0.370198 0.516378 0.273247
0.325001 0.612762 0.281701
0.299399 0.548316 0.267225
0.298262 0.582356 0.271809
0.330879 0.602774 0.27361
0.368934 0.567185 0.272472
0.353637 0.592027 0.275253
0.370387 0.549327 0.269374
0.334482 0.618976 0.282167
0.359073 0.612698 0.281543
0.385495 0.533114 0.27342
0.363087 0.504162 0.268837
0.30218 0.495818 0.269943
0.360337 0.634507 0.288149
0.404538 0.536985 0.280089
0.2994 0.597339 0.274242
0.335336 0.485072 0.270133
0.35629 0.490382 0.271903
0.380122 0.50647 0.273926
0.39267 0.525339 0.275665
0.39896 0.573444 0.280058
0.349527 0.630461 0.288086
0.339097 0.629734 0.285367
0.276516 0.601384 0.278035
0.272092 0.531912 0.272851
0.279109 0.518258 0.273484
0.332871 0.505996 0.268585
0.366217 0.59304 0.276644
0.354268 0.602648 0.277466
0.342258 0.607863 0.278255
0.310652 0.571326 0.256479
0.314034 0.566363 0.264824
0.313559 0.575214 0.262864
0.343016 0.58163 0.260904
0.351992 0.570283 0.261347
0.32892 0.535958 0.265234
0.292604 0.554194 0.264065
0.307586 0.593798 0.272946
0.344092 0.602142 0.270955
0.365268 0.581028 0.273484
0.364509 0.533082 0.265645
0.34365 0.517943 0.267668
0.32301 0.51178 0.264033
0.303098 0.518195 0.267731
0.285177 0.526854 0.265076
0.273356 0.542469 0.265391
0.281068 0.543228 0.272662
0.270448 0.561686 0.270639
0.301233 0.616175 0.277782
0.310573 0.615685 0.28129
0.321492 0.622939 0.278572
0.379869 0.595061 0.279741
0.3903 0.570409 0.277276
0.282048 0.503262 0.267478
0.255371 0.545662 0.276044
0.25591 0.577806 0.281385
0.27304 0.618387 0.283471
0.342384 0.641333 0.287264
0.39662 0.608843 0.284736
0.407431 0.585075 0.283282
0.412425 0.559157 0.280437
0.410844 0.535642 0.275444
0.394977 0.504984 0.272156
0.323168 0.471102 0.270576
0.285239 0.617818 -0.0200763
0.292321 0.598602 -0.0198235
0.292321 0.598602 -0.0198235
0.285239 0.617818 -0.0200763
0.358566 0.573569 -0.0195706
0.37829 0.571294 -0.0193178
0.323673 0.568514 -0.0195706
0.308754 0.565984 -0.0198235
0.345924 0.540447 -0.0195706
0.33581 0.533871 -0.0195706
0.319627 0.531596 -0.0195706
0.306732 0.535137 -0.0195706
0.297123 0.541964 -0.0198235
0.290297 0.588993 -0.0198235
0.322915 0.612255 -0.0198235
0.36514 0.598097 -0.0195706
0.360085 0.561179 -0.0195706
0.378795 0.560674 -0.0193178
0.371716 0.537159 -0.0193178
0.358061 0.551065 -0.0195706
0.366659 0.529827 -0.0193178
0.353003 0.541964 -0.0195706
0.366659 0.529827 -0.0193178
0.34896 0.537665 -0.0195706
0.329489 0.509345 -0.0195706
0.309007 0.53008 -0.0195706
0.311284 0.510104 -0.0195706
0.309007 0.53008 -0.0195706
0.301169 0.513139 -0.0195706
0.309007 0.53008 -0.0195706
0.285998 0.521735 -0.0198235
0.265265 0.553595 -0.0198235
0.271586 0.600877 -0.0200763
0.277907 0.610233 -0.0200763
0.277907 0.610233 -0.0200763
0.292321 0.598602 -0.0198235
0.356292 0.609728 -0.0195706
0.375002 0.61959 -0.0195706
0.356292 0.609728 -0.0195706
0.365645 0.625911 -0.0195706
0.334293 0.635265 -0.0198235
0.365645 0.625911 -0.0195706
0.334293 0.635265 -0.0198235
0.356292 0.609728 -0.0195706
0.308754 0.654735 -0.0200763
0.313306 0.636531 -0.0198235
0.337073 0.657263 -0.0198235
0.313306 0.636531 -0.0198235
0.337073 0.657263 -0.0198235
0.351487 0.655241 -0.0198235
0.420768 0.541205 -0.0190649
0.392954 0.522493 -0.0193178
0.416216 0.526539 -0.0190649
0.392954 0.522493 -0.0193178
0.416216 0.526539 -0.0190649
0.385622 0.512381 -0.0193178
0.344155 0.533871 -0.0195706
0.361349 0.524012 -0.0193178
0.34896 0.537665 -0.0195706
0.366659 0.529827 -0.0193178
0.293332 0.624139 -0.0200763
0.297629 0.604165 -0.0198235
0.297629 0.604165 -0.0198235
0.293332 0.624139 -0.0200763
0.303699 0.608717 -0.0198235
0.3128 0.63299 -0.0198235
0.303699 0.608717 -0.0198235
0.302939 0.629449 -0.0200763
0.303699 0.608717 -0.0198235
0.293332 0.624139 -0.0200763
0.310273 0.612255 -0.0198235
0.3128 0.63299 -0.0198235
0.317605 0.614785 -0.0198235
0.3128 0.63299 -0.0198235
0.362865 0.605176 -0.0195706
0.375002 0.61959 -0.0195706
0.374496 0.534632 -0.0193178
0.390426 0.525023 -0.0193178
0.374496 0.534632 -0.0193178
0.395736 0.535895 -0.0193178
0.378543 0.542722 -0.0193178
0.395736 0.535895 -0.0193178
0.38107 0.55132 -0.0193178
0.395736 0.535895 -0.0193178
0.38107 0.55132 -0.0193178
0.399527 0.547274 -0.0193178
0.382334 0.559916 -0.0193178
0.399527 0.547274 -0.0193178
0.382334 0.559916 -0.0193178
0.401046 0.559157 -0.0193178
0.382334 0.568767 -0.0193178
0.401046 0.559157 -0.0193178
0.382334 0.568767 -0.0193178
0.401046 0.570788 -0.0193178
0.380817 0.577109 -0.0193178
0.401046 0.570788 -0.0193178
0.380817 0.577109 -0.0193178
0.399022 0.582167 -0.0193178
0.378037 0.585202 -0.0195706
0.399022 0.582167 -0.0193178
0.373991 0.592787 -0.0195706
0.399022 0.582167 -0.0193178
0.355281 0.514908 -0.0193178
0.342636 0.489371 -0.0193178
0.355281 0.514908 -0.0193178
0.375002 0.506565 -0.0193178
0.355281 0.514908 -0.0193178
0.3836 0.515161 -0.0193178
0.355281 0.514908 -0.0193178
0.390426 0.525023 -0.0193178
0.337834 0.507323 -0.0193178
0.330247 0.487094 -0.0193178
0.337834 0.507323 -0.0193178
0.342636 0.489371 -0.0193178
0.346935 0.510609 -0.0193178
0.342636 0.489371 -0.0193178
0.337834 0.507323 -0.0193178
0.317605 0.486842 -0.0195706
0.318869 0.505552 -0.0195706
0.317605 0.486842 -0.0195706
0.317605 0.486842 -0.0195706
0.318869 0.505552 -0.0195706
0.309262 0.506818 -0.0195706
0.292826 0.492404 -0.0195706
0.309262 0.506818 -0.0195706
0.317605 0.486842 -0.0195706
0.299906 0.509598 -0.0195706
0.292826 0.492404 -0.0195706
0.243267 0.588741 -0.0200763
0.247566 0.536401 -0.0198235
0.265013 0.543733 -0.0198235
0.247566 0.536401 -0.0198235
0.265013 0.543733 -0.0198235
0.253634 0.52477 -0.0198235
