0.0779847 0.272474 -0.573288
0.122498 0.0710479 -0.635617
0.09114 0.215953 -0.593933
0.0736224 0.212337 -0.627835
0.0692749 0.255982 -0.610837
0.228468 -0.0924663 -0.524021
0.528107 0.374556 0.178182
0.489814 0.248403 0.166421
0.570316 0.107438 0.163032
0.569014 0.0917912 0.161302
0.532152 0.412913 0.156576
0.511954 0.299055 0.128274
0.517096 0.598932 0.144949
0.535102 0.44695 0.126134
0.526969 0.348822 0.086452
0.521341 0.599167 0.0968299
0.51363 0.304064 0.0710669
0.505182 0.284941 0.0806709
0.511871 0.67131 0.0784839
0.520156 0.605341 0.0672676
0.506718 0.684966 0.0543098
0.517922 0.601257 -0.00991768
0.405455 0.0617236 -0.12745
0.233837 -0.871905 -0.105119
0.441571 0.161989 -0.130857
0.381772 -0.100297 -0.122013
0.246884 -0.8696 -0.140188
0.253501 -0.811015 -0.150181
0.246904 -0.866833 -0.150564
0.249054 -0.83095 -0.157903
0.24545 -0.86471 -0.160123
0.416719 0.124135 -0.192205
0.43416 0.162802 -0.183461
0.381951 -0.109021 -0.190968
0.408934 0.099088 -0.188414
0.40773 0.101053 -0.237917
0.358721 -0.173199 -0.210271
0.369945 -0.148936 -0.220389
0.330269 -0.222368 -0.277359
0.411451 0.124911 -0.289894
0.337806 -0.203577 -0.288858
0.341588 -0.178661 -0.308759
0.336888 -0.189751 -0.324582
0.324115 -0.240805 -0.302377
0.513273 0.651457 0.11398
0.306809 0.402463 0.537656
0.278848 0.285135 0.538055
0.31679 0.315998 0.515148
0.235873 0.0978959 0.479241
0.224607 0.0684258 0.480543
0.290851 0.112945 0.434986
0.415075 0.477715 0.428876
0.260735 0.0249676 0.412295
0.377809 0.274557 0.431767
0.279388 0.052577 0.399144
0.251847 0.00720674 0.402386
0.292633 0.0503906 0.383401
0.269291 0.0177834 0.389651
0.295669 0.0345083 0.367347
0.286445 0.00737677 0.361918
0.303271 0.019085 0.350661
0.20207 -0.271783 0.333141
0.2788 -0.0237616 0.331588
0.224918 -0.250804 0.293805
0.306133 0.00291896 0.329225
0.34467 0.0901527 0.362129
0.220516 -0.211941 0.293207
0.365475 0.0775566 0.317463
0.272979 -0.0470169 0.304435
0.355838 0.0786976 0.336255
0.321777 0.00548119 0.298302
0.224755 -0.163768 0.27445
0.474974 0.516852 0.329553
0.232693 -0.192655 0.264307
0.30588 -0.016323 0.297962
0.278565 -0.0597513 0.274169
0.307857 -0.0332536 0.274808
0.47179 0.646704 0.293881
0.47797 0.61476 0.294086
0.412726 0.170092 0.308187
0.377598 0.072193 0.296696
0.345041 0.0205895 0.284694
0.23998 -0.217886 0.259212
0.373784 0.0510918 0.277318
0.275659 -0.234133 0.189498
0.36337 0.00667084 0.249115
0.376993 0.0431571 0.261592
0.398764 0.0762503 0.252927
0.419919 0.108876 0.245363
0.381143 0.0267184 0.234698
0.338108 -0.0269852 0.223364
0.471767 0.25705 0.265157
0.360587 -0.00441828 0.226167
0.252419 -0.189965 0.21461
0.406818 0.0606465 0.227228
0.439525 0.164287 0.243833
0.387802 0.022318 0.213924
0.261838 -0.179718 0.19603
0.417158 0.0827673 0.226284
0.37586 0.00542021 0.207721
0.432384 0.134301 0.212376
0.414124 0.0713481 0.20639
0.333326 -0.043343 0.179021
0.23636 -0.551931 0.175198
0.334702 -0.0440918 0.145313
0.446221 0.160063 0.188959
0.321104 -0.0582849 0.157485
0.216478 -0.587227 0.162428
0.463623 0.192353 0.181747
0.419444 0.0757742 0.17898
0.399312 0.0308795 0.158622
0.43059 0.116785 0.189064
0.30624 -0.479573 0.156248
0.471163 0.216962 0.176411
0.510042 0.658154 0.169047
0.449029 0.157638 0.157813
0.167738 -0.726749 0.110386
0.403601 0.0399224 0.124135
0.204053 -0.637135 0.116917
0.200639 -0.657791 0.0940332
0.314544 -0.494319 0.115481
0.24004 -0.604952 0.089882
0.249068 -0.565211 0.131183
0.200615 -0.679339 0.0705979
0.359323 -0.00999127 0.0906736
0.348063 -0.041665 0.0916762
0.29852 -0.521688 0.107137
0.282507 -0.548718 0.0966189
0.215734 -0.670444 0.043885
0.239609 -0.635411 0.0387254
0.197915 -0.720792 0.0408655
0.330415 -0.0630089 0.0255918
0.328978 -0.503313 0.0631281
0.269516 -0.585779 0.0539991
0.247353 -0.643602 0.0107045
0.344319 -0.492179 0.0410707
0.216527 -0.728713 -0.00791597
0.299384 -0.572458 0.014264
0.342387 -0.39799 0.019664
0.238084 -0.674091 -0.00444201
0.349468 -0.0952654 -0.0431135
0.248842 -0.697585 -0.0583889
0.333151 -0.172149 -0.0908061
0.295755 -0.614527 -0.06888
0.243022 -0.754429 -0.0951648
0.370774 -0.123165 -0.117977
0.325574 -0.213644 -0.129071
0.423976 0.649129 0.344012
0.466138 0.182838 0.120171
0.459443 0.186918 0.152636
0.461506 0.184113 0.132555
0.347802 -0.0613138 -0.00557537
0.368972 -0.0666582 -0.0235204
0.365994 -0.0370852 0.0152959
0.374357 -0.0101766 0.0539639
0.343639 -0.0419277 0.0244367
0.360111 -0.0213489 0.0634799
0.457865 0.337008 0.33792
0.462474 0.402089 0.348691
0.400287 0.618577 0.387669
0.42438 0.443002 0.417765
0.42801 0.378087 0.396019
0.23842 -0.871201 -0.114455
0.397469 0.329081 0.433959
0.281171 0.747149 0.440133
0.292489 0.638971 0.49102
0.270503 0.630467 0.505813
0.226963 0.605474 0.531154
0.234622 -0.081936 0.284846
0.281603 0.465551 0.541233
0.22238 -0.0991774 0.281522
0.175235 -0.790775 0.0399625
0.26465 0.457576 0.552373
0.218147 0.536568 0.562528
0.200555 0.578907 0.553006
0.167585 -0.662945 0.155779
0.280121 0.228979 0.514438
0.251781 0.375138 0.565378
0.237259 0.499447 0.559397
0.155194 -0.722609 0.137386
0.233951 0.323629 0.562774
0.233043 0.448261 0.568866
0.174787 0.66687 0.530574
0.141585 -0.738358 0.141132
0.205524 0.197141 0.536836
0.136838 -0.78816 0.134765
0.200449 0.16062 0.525033
0.190705 0.324854 0.582293
0.205444 0.361976 0.581982
0.163005 -0.349101 0.374671
0.148588 -0.291401 0.378968
0.173947 0.186358 0.546111
0.19875 0.301141 0.571956
0.123763 -0.29873 0.386567
0.135382 -0.254173 0.387921
0.109457 -0.276374 0.390214
0.137737 0.254278 0.579614
0.118369 0.306788 0.594272
0.166187 0.353127 0.594993
0.128094 0.181438 0.556706
0.113612 0.243214 0.581384
0.0886974 0.174255 0.557627
0.121109 0.262524 0.587078
0.062633 0.263088 0.599185
0.0936817 0.321271 0.603489
0.0722675 0.249852 0.593568
0.0218965 0.326279 0.620674
0.043078 0.294027 0.605693
0.0372054 0.350266 0.621155
0.0174141 0.281518 0.609545
0.539921 0.137566 0.164427
0.546453 0.159493 0.163794
0.509174 0.173501 0.136377
0.502789 0.124289 0.137321
0.528447 0.0424318 0.145131
0.503886 0.0377893 0.135492
0.521006 0.0627725 0.150596
0.484478 0.0892232 0.127741
0.504466 0.162144 0.136577
0.47243 0.0522029 0.117298
0.474071 0.107958 0.127061
0.482637 0.141578 0.131822
0.47328 0.169887 0.120195
0.472342 -0.00994085 0.0967185
0.467803 0.162474 0.12271
0.458733 0.127173 0.120564
0.465804 0.0257838 0.105291
0.447681 0.0809591 0.11714
0.450184 0.0498347 0.112954
0.444198 -0.0432404 0.0549782
0.437649 -0.00938267 0.0726559
0.432354 0.00276593 0.0782435
0.430613 0.0366853 0.099398
0.437309 0.0700253 0.112584
0.426444 -0.0600896 0.0173774
0.419373 0.0210592 0.0881993
0.419567 -0.0382725 0.0369957
0.41779 -0.0122603 0.0612695
0.388791 -0.0272497 0.0323755
0.379734 -0.0173549 0.0405254
0.395384 0.00336867 0.0681998
0.356349 0.340641 0.478713
0.316971 0.340574 0.523972
0.281571 -0.409817 0.291905
0.267726 0.707989 0.474697
0.248198 -0.392027 0.321755
0.22178 0.730239 0.483955
0.221199 -0.417969 0.306387
0.197315 0.735879 0.489214
0.197493 -0.53712 0.20863
0.209494 -0.507839 0.22459
0.181641 -0.529944 0.216446
0.193311 0.798129 0.450341
0.187884 -0.40552 0.328158
0.187875 -0.475738 0.256573
0.161082 -0.450075 0.284189
0.137689 0.809516 0.462801
0.161455 -0.47439 0.255512
0.164781 -0.561922 0.20082
0.190868 -0.374164 0.353792
0.172434 0.688406 0.521908
0.12637 0.718965 0.520671
0.142291 0.774342 0.484647
0.156363 -0.586594 0.190577
0.153361 -0.529774 0.219154
0.153098 -0.41015 0.321743
0.122506 -0.543582 0.215044
0.141346 -0.388192 0.34444
0.120877 -0.50669 0.241851
0.11097 -0.000863405 0.47981
0.127447 -0.589092 0.188578
0.133932 -0.474214 0.266136
0.124305 -0.424987 0.315112
0.117047 -0.387158 0.355568
0.111304 0.0233388 0.491566
0.106129 -0.499607 0.249256
0.103422 0.776213 0.492686
0.0866646 0.729802 0.519258
0.0977039 -0.541453 0.215765
0.0869372 0.0412269 0.506259
0.0830951 -0.59285 0.182814
0.0879 0.370131 0.612524
0.114552 0.609436 0.56264
0.092536 0.668565 0.544733
0.0644096 -0.476635 0.273161
0.0720951 -0.403926 0.350614
0.0796375 0.396201 0.60659
0.0956078 0.836187 0.45519
0.0897334 -0.573543 0.194095
0.0946263 0.464675 0.603207
0.0692438 -0.231154 0.39056
0.0813766 -0.099674 0.408959
0.0436303 0.844554 0.454727
0.0675956 -0.547862 0.206736
0.0602561 -0.00544082 0.488552
0.036887 0.637003 0.557058
0.0664447 -0.167494 0.387658
0.0493469 0.492037 0.602099
0.0840977 0.758171 0.505719
0.0524685 0.807094 0.479253
0.0450005 -0.596315 0.172788
0.04698 -0.413251 0.34261
0.0776294 0.436641 0.606186
0.0416163 -0.439292 0.310111
0.0323102 -0.558844 0.191662
0.0326203 -0.533585 0.210354
0.0436068 -0.0503414 0.458034
0.0458143 0.518203 0.59684
0.0600766 0.670466 0.544669
0.0278999 0.871226 0.434241
0.0348372 -0.510495 0.230582
0.0253922 -0.238373 0.378171
0.0192135 -0.0933552 0.406836
0.0283759 -0.0485408 0.458673
0.0586378 0.601694 0.567799
0.0201493 -0.37617 0.37708
0.0384578 -0.170784 0.378259
0.0555039 -0.0923766 0.413679
0.00694938 -0.105733 0.396787
0.0207936 -0.0192112 0.483967
0.0332055 0.434283 0.611644
0.0351896 0.733593 0.516578
0.0151755 -0.165664 0.374852
0.022525 0.405479 0.616763
0.00962419 -0.53569 0.207346
0.00199906 -0.286335 0.389757
0.0182197 -0.13162 0.3854
0.016439 0.501398 0.600123
0.0162684 -0.41002 0.34512
-0.0163921 0.463808 0.607335
0.00160681 0.580332 0.572261
0.00590456 -0.579037 0.177291
0.0176416 -0.444657 0.304863
-0.0160292 -0.471394 0.279411
-0.0103735 -0.41332 0.343466
-0.00571811 -0.0655283 0.437249
-0.00630854 -0.0233231 0.477723
-0.00963944 -0.559858 0.189047
-0.00806575 -0.0830447 0.417144
-0.0104491 0.514363 0.596136
-0.0377659 -0.117127 0.392536
-0.0192457 0.410964 0.616382
-0.0179336 0.754085 0.506828
-0.0102797 0.806103 0.479036
-0.033056 -0.513837 0.232986
-0.0177958 -0.443186 0.309583
-0.00867318 0.489932 0.603624
-0.017753 0.689546 0.533845
-0.0395677 -0.0468786 0.456826
-0.0198966 0.435584 0.613145
-0.00994374 0.380729 0.626179
-0.0740651 -0.454267 0.293846
-0.0359618 -0.284783 0.391744
-0.0466282 -0.280013 0.39148
-0.0403193 -0.0963014 0.404426
-0.0391391 0.572576 0.569066
-0.0465461 -0.533421 0.215009
-0.0350483 0.203983 0.578588
-0.0521396 0.631641 0.552631
-0.0574077 0.381347 0.622286
-0.053745 0.430151 0.608824
-0.0480864 0.521597 0.58716
-0.0603452 -0.56527 0.190501
-0.0801629 0.795151 0.477869
-0.0661081 -0.0481251 0.452083
-0.0756107 0.418396 0.60737
-0.0697052 0.768086 0.494315
-0.0631208 -0.281557 0.391181
-0.0691787 -0.0951827 0.398159
-0.0608271 -0.00609457 0.479845
-0.0649848 -0.229551 0.387593
-0.0786578 0.614772 0.55446
-0.079814 -0.492976 0.24962
-0.0976969 0.209912 0.56899
-0.0927284 -0.553209 0.197079
-0.0868968 0.381244 0.613175
-0.115141 0.67702 0.524716
-0.0877687 -0.406458 0.349582
-0.0900805 0.240253 0.579233
-0.0818245 0.527716 0.580657
-0.101375 0.443036 0.591903
-0.0959326 0.566422 0.5639
-0.130745 -0.578263 0.180545
-0.107972 -0.472736 0.26256
-0.0895276 0.351906 0.619226
-0.07762 -0.518669 0.225885
-0.132219 0.786098 0.471648
-0.0927547 0.328754 0.616476
-0.113598 0.413359 0.595884
-0.149338 -0.486093 0.24436
-0.105245 -0.447249 0.293875
-0.145686 -0.375322 0.35694
-0.109305 -0.535109 0.209896
-0.125728 -0.426023 0.31099
-0.130212 0.246949 0.581361
-0.117377 0.300948 0.603471
-0.132679 0.341284 0.606274
-0.124372 0.371591 0.605564
-0.132448 0.842103 0.436445
-0.132605 0.456681 0.584726
-0.12143 0.0634597 0.509396
-0.136213 0.26332 0.586726
-0.145809 0.688583 0.514174
-0.138651 0.0351767 0.490897
-0.169113 0.323539 0.595028
-0.189655 0.0378755 0.46585
-0.155308 0.280514 0.587406
-0.161881 -0.507722 0.222543
-0.157151 -0.347305 0.367969
-0.159054 -0.424712 0.301064
-0.196014 0.473319 0.557245
-0.178419 0.667737 0.509284
-0.193125 -0.50808 0.214358
-0.199188 -0.461479 0.256515
-0.189375 0.186163 0.540049
-0.196088 0.300399 0.575932
-0.361221 -0.0925097 0.0581327
-0.369141 -0.083434 0.0756578
-0.40016 -0.0775544 0.103455
-0.39203 -0.0236655 0.122558
-0.393444 -0.0410048 0.11449
-0.421819 -0.0665251 0.133932
-0.423292 -0.0325928 0.1476
-0.416893 0.0137349 0.156512
-0.404587 -0.00811504 0.140968
-0.446408 -0.00209116 0.174242
-0.441132 -0.0463392 0.164368
-0.451095 0.0920361 0.177226
-0.463862 0.0471335 0.187739
-0.444367 0.125449 0.18017
-0.460158 -0.0251559 0.185453
-0.474365 -0.0228681 0.190671
-0.479394 0.0621645 0.19671
-0.458813 0.124191 0.178106
-0.467244 0.153761 0.168813
-0.475172 -0.00225064 0.201471
-0.475313 0.0504597 0.19671
-0.500124 0.0174521 0.213426
-0.502083 0.0557818 0.211872
-0.495891 0.0891557 0.210301
-0.482049 0.101117 0.197713
-0.514774 0.101688 0.221423
0.0559519 -0.35625 0.399091
0.0695252 -0.190732 0.388261
0.107235 -0.903935 0.135416
0.0894016 -0.162853 0.393058
0.0301244 0.131394 0.547894
0.032061 0.236741 0.59752
0.0717521 -0.342686 0.404937
0.0868206 -0.813671 0.142352
-0.0132588 0.294275 0.611943
0.0679263 -0.906503 0.134067
0.0802074 -0.711076 0.14417
0.0045654 0.26942 0.607294
0.0970413 -0.667313 0.157467
0.0690057 -0.81767 0.1385
0.0732783 -0.843568 0.136565
0.0686393 -0.676431 0.149441
0.0110566 0.100915 0.540471
-0.0167398 0.163743 0.56529
0.039526 -0.823128 0.138453
0.069028 -0.72496 0.141842
0.0720054 -0.757589 0.141924
0.0537883 -0.646446 0.155445
-0.0183323 -0.345386 0.403371
0.0382959 -0.907659 0.133053
-0.0090537 0.343762 0.626004
0.0496407 -0.789896 0.138781
-0.0636116 0.320965 0.620832
0.00791506 -0.876859 0.132326
0.0264557 -0.832187 0.136577
0.0269406 -0.689453 0.142258
0.023608 -0.64172 0.154682
0.00148603 -0.796122 0.134706
-0.0352887 -0.88179 0.129658
0.00442116 -0.766583 0.134314
-0.0700887 -0.336193 0.400991
-0.0292273 -0.13683 0.387435
-0.0161593 -0.910537 0.131083
-0.0750115 0.267432 0.592126
-0.0363734 -0.671324 0.145688
-0.0524926 -0.197439 0.388895
-0.0457012 -0.912068 0.126662
-0.0266979 -0.760204 0.130948
-0.0217171 -0.727599 0.134865
-0.0987774 0.0984715 0.532051
-0.10919 0.155784 0.554677
-0.0563717 -0.912003 0.125044
-0.0509916 -0.784765 0.127225
-0.0559272 -0.753749 0.126873
-0.068114 -0.883361 0.127225
-0.0436139 -0.69127 0.139567
-0.123465 0.0456683 0.50185
-0.0945395 -0.691223 0.133669
-0.0756423 -0.910203 0.124217
-0.0307347 -0.815489 0.132314
-0.100173 -0.84107 0.126322
-0.0964896 -0.910215 0.120793
-0.118494 -0.911669 0.117386
-0.103216 -0.780192 0.122276
-0.0995655 -0.658946 0.143917
-0.12485 -0.211544 0.366093
-0.147333 0.366789 0.600909
-0.123256 -0.873546 0.120975
-0.121282 -0.808576 0.12417
-0.109834 -0.719707 0.126703
-0.136389 -0.90264 0.118049
-0.130114 -0.911165 0.115897
-0.158829 0.350714 0.598376
-0.143624 -0.81356 0.124463
-0.141788 -0.845778 0.120793
-0.132439 -0.773655 0.12135
-0.161334 -0.252551 0.353024
-0.133671 -0.680048 0.135944
-0.182596 -0.314347 0.351575
-0.235864 0.38854 0.560623
-0.132605 -0.738633 0.122417
-0.187721 -0.28422 0.343138
-0.168696 -0.0748655 0.35042
-0.145482 -0.699139 0.129171
-0.210273 -0.343066 0.328679
-0.184581 -0.00508493 0.426091
-0.171747 -0.633993 0.149781
-0.168474 -0.662183 0.140839
-0.210371 -0.289226 0.314813
-0.167523 -0.856226 0.100184
-0.216035 -0.316165 0.31751
-0.179494 -0.0618966 0.353686
-0.175503 -0.906146 0.0858892
-0.172751 -0.798151 0.101708
-0.181779 -0.638237 0.146638
-0.185605 -0.859123 0.0717822
-0.231564 0.350774 0.566609
-0.189902 -0.667946 0.131693
-0.201074 -0.131148 0.272164
-0.194201 -0.0502863 0.361889
-0.234669 -0.0157871 0.382316
-0.222385 -0.0100007 0.401161
-0.214012 -0.0565119 0.334548
-0.259782 0.593812 0.48915
-0.203901 -0.0838978 0.312444
-0.232601 0.425703 0.553786
-0.184066 -0.807251 0.0787184
-0.259344 0.0080012 0.390613
-0.187745 0.731865 0.481774
-0.287927 0.398054 0.527589
-0.21182 -0.849994 0.0206256
-0.234159 -0.0343266 0.343191
-0.284254 0.424731 0.526868
-0.227009 0.552914 0.519416
-0.230235 -0.555683 0.16978
-0.172913 0.793726 0.452581
-0.267947 -0.439081 0.256362
-0.202397 -0.10526 0.289765
-0.273302 -0.0140258 0.342311
-0.241363 -0.0787921 0.287279
-0.270721 -0.0293956 0.318765
-0.293739 0.0221327 0.371264
-0.286431 -0.413246 0.262061
-0.239377 -0.155138 0.227539
-0.254002 -0.117811 0.226706
-0.246354 -0.103402 0.24602
-0.162084 0.850376 0.416774
-0.26912 0.550514 0.497505
-0.22069 0.757304 0.448213
-0.273506 -0.272746 0.217436
-0.271849 -0.0613379 0.285057
-0.228663 0.665441 0.485538
-0.278497 0.0348178 0.396939
-0.292765 0.0758305 0.411826
-0.31167 0.127423 0.425763
-0.222897 -0.764525 0.0125883
-0.340207 0.35302 0.487585
-0.315254 0.425947 0.51197
-0.235505 -0.813313 -0.0330886
-0.215885 -0.804829 0.0128926
-0.299344 -0.436608 0.224607
-0.340149 0.0542274 0.352554
-0.316499 0.0703683 0.382615
-0.268464 0.631862 0.472856
-0.235805 -0.855194 -0.0352861
-0.274548 -0.158011 0.187417
-0.267658 -0.0766403 0.268722
-0.305166 -0.0310379 0.290568
-0.265177 -0.547586 0.133516
-0.263669 -0.192077 0.197818
-0.277123 -0.184109 0.182093
-0.298347 0.00451024 0.345308
-0.340158 0.262757 0.473437
-0.322248 0.00645742 0.328175
-0.34761 0.0953932 0.366826
-0.299462 0.564576 0.471126
-0.334785 0.432118 0.499839
-0.274289 -0.104869 0.213145
-0.310976 0.501591 0.49448
-0.289825 0.661408 0.44619
-0.27223 0.693859 0.445762
-0.205982 0.842168 0.393099
-0.311924 -0.464287 0.168959
-0.330231 -0.401344 0.213602
-0.353636 0.143737 0.388801
-0.351834 0.428861 0.48742
-0.316761 0.579714 0.45196
-0.32558 0.100162 0.398024
-0.234145 0.780393 0.42201
-0.220724 0.884659 0.34013
-0.253329 -0.806887 -0.0684778
-0.30701 -0.373297 0.237864
-0.349952 0.183603 0.413626
-0.326988 -0.433433 0.196974
-0.342977 -0.394502 0.188361
-0.37466 0.335682 0.459277
-0.344991 0.408819 0.493653
-0.351237 0.466168 0.479206
-0.296871 0.604604 0.460924
-0.258575 0.740189 0.430189
-0.288001 -0.147163 0.17046
-0.367074 0.0951537 0.345214
-0.267268 -0.816151 -0.101681
-0.347557 -0.46366 0.129558
-0.361444 -0.446762 0.133053
-0.289141 -0.184341 0.165805
-0.358345 0.209148 0.421101
-0.350392 -0.405946 0.176746
-0.362129 0.395309 0.471771
-0.301615 0.70303 0.416739
-0.276857 -0.830323 -0.128558
-0.304969 -0.192194 0.131992
-0.382837 0.224707 0.399531
-0.233893 0.838668 0.37205
-0.397703 0.259007 0.411327
-0.284713 0.754495 0.396828
-0.345665 0.574059 0.440151
-0.332104 0.626659 0.42143
-0.379269 0.135662 0.357286
-0.383687 0.388778 0.449714
-0.36785 0.481689 0.459957
-0.312077 0.770631 0.357632
-0.275904 -0.784156 -0.109028
-0.380744 0.0981449 0.327712
-0.37063 0.534523 0.438439
-0.363931 0.633743 0.395268
-0.410972 0.287915 0.418879
-0.396834 0.123622 0.317012
-0.425253 0.34634 0.416774
-0.439799 0.385844 0.391088
-0.427164 0.283915 0.401465
-0.365146 0.728252 0.33422
-0.358956 0.694073 0.360611
-0.428091 0.255697 0.371123
-0.394395 0.494937 0.427316
-0.392606 0.600958 0.394717
-0.439094 0.317062 0.393157
-0.337813 -0.0817296 0.0842592
-0.394031 0.574124 0.404837
-0.403014 0.0680764 0.235138
-0.341174 -0.0869133 0.0649809
-0.397812 0.695128 0.32814
-0.349374 -0.107496 0.0338355
-0.370462 0.768737 0.300436
-0.453516 0.325562 0.366691
-0.468073 0.387419 0.348128
-0.371883 0.800668 0.273448
-0.459981 0.272806 0.32532
-0.428298 0.139384 0.215091
-0.432486 0.616122 0.359086
-0.459379 0.294596 0.336812
-0.392719 0.722597 0.315687
-0.443586 0.49425 0.3694
-0.459071 0.531622 0.350643
-0.400902 0.746439 0.28915
-0.436011 0.68257 0.308791
-0.480263 0.379799 0.324669
-0.425413 0.717279 0.287742
-0.450197 0.162223 0.171539
-0.48143 0.29604 0.302565
-0.456144 0.159145 0.16509
-0.484334 0.340009 0.305303
-0.496661 0.39023 0.301808
-0.470467 0.500481 0.316109
-0.502255 0.38571 0.288645
-0.515058 0.363522 0.257523
-0.525552 0.399574 0.244554
-0.52574 0.365919 0.231625
-0.260283 0.170865 0.488241
-0.276792 0.894591 0.269561
-0.450375 0.441472 0.358412
-0.391835 0.79664 0.255477
-0.370927 0.826953 0.238697
-0.363208 0.0427572 0.315774
-0.35661 0.0239451 0.285426
-0.378982 0.038086 0.266987
-0.432161 0.197036 0.287989
-0.504476 0.618428 0.259364
-0.430821 0.169045 0.246014
-0.450131 0.744803 0.234762
-0.472825 0.718659 0.236105
-0.351272 -0.013528 0.252733
-0.414517 0.153969 0.267069
-0.44288 0.195777 0.257007
-0.518692 0.565535 0.23305
-0.498985 0.299765 0.255248
-0.455431 0.756025 0.206718
-0.444257 0.774078 0.190923
-0.486483 0.275321 0.253032
-0.480262 0.718195 0.222907
-0.514472 0.63695 0.233947
-0.403231 0.0500435 0.206795
-0.450745 0.20412 0.240197
-0.518579 0.613716 0.235354
-0.522471 0.641636 0.208718
-0.382645 0.00467676 0.196346
-0.482291 0.248356 0.220104
-0.525107 0.48524 0.23882
-0.528111 0.598221 0.201981
-0.317091 -0.328048 0.174383
-0.337053 -0.0564948 0.199014
-0.441274 0.180835 0.219008
-0.308105 -0.098822 0.175925
-0.494116 0.284635 0.231678
-0.534015 0.508524 0.207727
-0.28778 -0.232191 0.174688
-0.366163 -0.023017 0.171826
-0.529017 0.460873 0.234182
-0.455752 0.202416 0.178505
-0.508501 0.695116 0.186232
-0.31425 -0.358507 0.208601
-0.331744 -0.366756 0.173709
-0.340018 -0.0581096 0.148761
-0.446384 0.175791 0.185939
-0.531347 0.554869 0.194429
-0.461313 0.758511 0.16703
-0.528266 0.356063 0.183107
-0.54074 0.540792 0.15806
-0.53171 0.625248 0.174916
-0.524772 0.66499 0.164468
-0.544266 0.437257 0.186549
-0.539736 0.509591 0.18411
-0.489995 0.255095 0.156389
-0.493948 0.2689 0.194699
-0.535426 0.606479 0.141414
-0.529798 0.580432 0.194523
-0.531932 0.638804 0.150555
-0.537494 0.387064 0.198551
-0.51516 0.321834 0.162416
-0.535114 0.570493 0.166239
-0.320919 -0.10536 0.11364
-0.500212 -0.0090127 0.190858
-0.513028 0.0101753 0.206015
-0.526283 0.0239996 0.19695
-0.537396 0.590748 0.12101
-0.47776 0.232934 0.151112
-0.324231 -0.299962 0.109577
-0.316019 -0.20684 0.0991049
-0.330516 -0.0998516 0.0864989
-0.503109 0.279511 0.128104
-0.344394 -0.380491 0.140622
-0.331348 -0.327043 0.110139
-0.463581 -0.0570806 0.15059
-0.525442 0.331889 0.112297
-0.538644 0.37988 0.148033
-0.509926 0.0228176 0.159695
-0.209393 -0.687172 0.0913713
-0.316022 -0.174601 0.0800025
-0.324059 -0.232246 0.0726676
-0.535806 0.374789 0.102423
-0.328291 -0.270681 0.0682936
-0.323102 -0.127727 0.0690031
-0.432315 -0.0810319 0.103027
-0.496072 0.258747 0.118541
-0.541552 0.566215 0.0699529
-0.23713 -0.682745 0.0426244
-0.476095 0.220678 0.0918697
-0.534424 0.355891 0.0838839
-0.243766 -0.63829 0.0732832
-0.491032 0.245584 0.0888794
-0.511943 0.280446 0.0700233
-0.328627 -0.524802 0.0713484
-0.360494 -0.492507 0.0646174
-0.532171 0.337197 0.0399098
-0.534415 0.349704 0.0224198
-0.538965 0.415852 0.089026
-0.212222 -0.743647 0.046887
-0.267478 -0.628276 0.0370485
-0.319505 -0.165195 -0.00213014
-0.271996 -0.67086 -0.0145361
-0.312606 -0.567158 0.0311325
-0.27798 -0.632216 0.0100677
-0.493555 0.233962 0.0273859
-0.327199 -0.205812 -0.0383877
-0.35702 -0.507558 0.0447235
-0.425763 -0.0149609 -0.00243386
-0.304096 -0.606512 -0.0107561
-0.367287 -0.497632 0.0355768
-0.410396 -0.0343547 -0.00994171
-0.430307 -0.00796377 -0.00567915
-0.313442 -0.255463 -0.061466
-0.396259 -0.130256 -0.0336415
-0.412184 -0.0467449 -0.0411458
-0.42219 -0.0289735 -0.0182341
-0.419543 0.037417 -0.0506213
-0.35958 -0.535572 -0.0239366
-0.31551 -0.232746 -0.0375804
-0.401295 -0.114381 -0.0464286
-0.297116 -0.639094 -0.0349613
-0.332945 -0.562162 -0.0104559
-0.352046 -0.546466 -0.02147
-0.280336 -0.708074 -0.0665558
-0.368023 -0.156094 -0.0949297
-0.256975 -0.73134 -0.0352832
-0.336709 -0.599399 -0.0688003
-0.299636 -0.293815 -0.0911292
-0.326669 -0.255769 -0.0901958
-0.292131 -0.715685 -0.0975031
-0.332469 -0.261508 -0.114331
-0.362744 -0.196492 -0.130366
-0.330034 -0.627226 -0.0857514
-0.267369 -0.32314 -0.149128
-0.325565 -0.28348 -0.137075
-0.358155 -0.18182 -0.0962261
-0.374724 -0.136887 -0.0911491
-0.349175 -0.219239 -0.115971
-0.376048 -0.158386 -0.139398
-0.279439 -0.759788 -0.103208
-0.297401 -0.726274 -0.122808
-0.311832 -0.692285 -0.122745
-0.321937 -0.664481 -0.110653
-0.332742 -0.275227 -0.156343
-0.240653 -0.346619 -0.183032
-0.2929 -0.757378 -0.143844
-0.30288 -0.720833 -0.135894
-0.247689 -0.338088 -0.201935
-0.334985 -0.261027 -0.185434
-0.261488 -0.325461 -0.207156
-0.293592 -0.758973 -0.153099
-0.231571 -0.360909 -0.233481
-0.294906 -0.307684 -0.248221
-0.226801 -0.368765 -0.251997
-0.258789 -0.340059 -0.246004
-0.272412 -0.343052 -0.271953
-0.275348 -0.324091 -0.244364
-0.310555 -0.297605 -0.271128
-0.295093 -0.334379 -0.306186
-0.322421 -0.280158 -0.271209
-0.311406 -0.311513 -0.299488
-0.29184 -0.344672 -0.332806
-0.309511 -0.322978 -0.33254
-0.323464 -0.28681 -0.189076
-0.550558 0.121297 0.191849
-0.534628 0.12086 0.176669
-0.52029 0.0371919 0.177133
-0.523992 0.122052 0.151147
-0.507723 0.0286638 0.130127
-0.366308 -0.426497 0.134196
-0.493724 0.0338375 0.088211
-0.486678 0.0700458 0.0735178
-0.515231 0.134977 0.0885569
-0.493881 0.730775 0.105384
-0.505855 0.134429 0.0768305
-0.475755 0.107311 0.0670389
-0.461288 0.0878114 0.0607008
-0.481822 0.184408 0.066435
-0.472749 0.195363 0.0944847
-0.480119 0.740611 0.0553007
-0.458488 0.766966 0.0810168
-0.364124 -0.418069 0.0971583
-0.441256 0.047184 0.0801139
-0.458432 0.0811959 0.0624128
-0.470734 0.122941 0.053788
-0.479157 0.129213 0.0228771
-0.491912 0.136811 0.039212
-0.486191 0.174278 0.0434687
-0.50012 0.70708 0.0275501
-0.474649 0.122381 0.0260843
-0.495753 0.153347 0.0345273
-0.461996 0.759344 0.0451573
-0.476544 0.15957 0.0212178
-0.35218 -0.396427 0.0823361
-0.421477 -0.00402016 0.0605131
-0.35385 -0.421306 0.0516186
-0.41591 0.0206611 0.047274
-0.468503 0.153234 0.0117792
-0.358514 -0.43921 0.0183038
-0.409219 -0.0127353 0.036855
-0.462137 0.127964 0.00879656
-0.398678 0.820949 0.0647347
-0.420314 -0.0567698 0.0118742
-0.533814 0.599608 -0.00664072
-0.432142 0.786274 0.0467756
-0.515124 0.651686 -0.0156595
-0.471514 0.743678 0.0225018
-0.457461 0.139545 -0.00455576
-0.51762 0.304297 -0.0189148
-0.533519 0.470643 -0.0328511
-0.517364 0.653157 -0.00739297
-0.377732 0.839131 0.0694604
-0.510062 0.653593 -0.0326336
-0.340161 -0.389923 0.0218334
-0.407276 -0.037301 -0.00019
-0.52734 0.610751 -0.0249621
-0.470964 0.730873 -0.0075073
-0.324573 -0.272729 0.0200686
-0.330146 -0.372429 0.00295562
-0.519378 0.609119 -0.0481289
-0.440298 0.761326 -0.00963976
-0.379118 0.836486 0.0210536
-0.508633 0.317694 -0.0626908
-0.499082 0.644528 -0.0672307
-0.314923 -0.318832 -0.0163748
-0.493047 0.258977 -0.0697566
-0.390095 0.82072 -0.000975086
-0.308045 -0.28219 -0.0365437
-0.484503 0.265893 -0.0991747
-0.508535 0.431059 -0.0872771
-0.336436 -0.46923 -0.0454142
-0.411765 -0.017909 -0.0689457
-0.399691 -0.0587117 -0.0736709
-0.464872 0.22144 -0.0873773
-0.50103 0.363511 -0.101408
-0.482059 0.635764 -0.0984893
-0.424019 0.7801 -0.00559003
-0.330678 -0.492747 -0.0630209
-0.474824 0.250943 -0.111993
-0.469591 0.670843 -0.0902093
-0.314817 -0.511076 -0.0844035
-0.428691 0.755597 -0.0525363
-0.338902 0.871713 0.00331738
-0.445524 0.724415 -0.0695414
-0.402528 0.786332 -0.0766013
-0.405595 0.786637 -0.0544354
-0.351729 0.855384 -0.0165232
-0.457407 0.215899 -0.142058
-0.481152 0.577395 -0.1313
-0.463294 0.667241 -0.107731
-0.326234 0.875958 -0.046377
-0.480215 0.521827 -0.15019
-0.476129 0.61964 -0.12199
-0.4387 0.725869 -0.0890114
-0.360765 0.837765 -0.0599058
-0.424362 0.749834 -0.0938873
-0.287117 -0.531967 -0.115784
-0.2881 -0.475105 -0.10437
-0.262736 -0.879679 -0.111217
-0.415166 0.756688 -0.129486
-0.316898 -0.669664 -0.127923
-0.435734 0.711823 -0.136618
-0.399306 0.784755 -0.117958
-0.268177 -0.336845 -0.114696
-0.447381 0.649619 -0.170369
-0.44718 0.677568 -0.149275
-0.399198 0.777954 -0.143348
-0.349599 0.845287 -0.120423
-0.305261 -0.702369 -0.143099
-0.429131 0.700463 -0.176277
-0.278625 -0.582519 -0.142269
-0.410206 0.749324 -0.16067
-0.261753 -0.432644 -0.124591
-0.248623 -0.417918 -0.139268
-0.304088 0.883861 -0.149262
-0.28346 -0.8281 -0.195713
-0.373548 0.813204 -0.142262
-0.254449 -0.337033 -0.147719
-0.362743 -0.191841 -0.212479
-0.435244 0.199833 -0.224505
-0.451448 0.598898 -0.192301
-0.389595 0.743824 -0.224136
-0.335353 0.852341 -0.163681
-0.239246 -0.371776 -0.161351
-0.240081 -0.351717 -0.167583
-0.370674 -0.148492 -0.224927
-0.435008 0.175533 -0.250857
-0.426251 0.2349 -0.243432
-0.437715 0.568715 -0.231951
-0.390543 0.723955 -0.247662
-0.329509 0.839055 -0.213768
-0.421256 0.653751 -0.236906
-0.215729 -0.413291 -0.190345
-0.364724 -0.141446 -0.263741
-0.423023 0.563198 -0.270848
-0.199396 -0.532928 -0.187379
-0.389999 -0.0229554 -0.273295
-0.415926 0.617722 -0.267749
-0.308163 0.867327 -0.195247
-0.406764 0.0314963 -0.288175
-0.39465 0.657999 -0.297172
-0.355795 0.792993 -0.23045
-0.409274 0.20207 -0.31393
-0.364682 0.762768 -0.261332
-0.189114 -0.428134 -0.215475
-0.409832 0.05291 -0.301114
-0.216237 -0.379186 -0.232716
-0.373888 0.731941 -0.282991
-0.384812 -0.0241363 -0.306952
-0.164502 -0.445461 -0.242874
-0.38798 0.684859 -0.295323
-0.398217 0.213446 -0.327316
-0.354707 -0.153351 -0.340961
-0.349329 -0.138751 -0.36522
-0.375054 -0.0416755 -0.33837
-0.354722 0.711331 -0.332543
-0.324227 0.783049 -0.314488
-0.327359 -0.232399 -0.386072
-0.334597 -0.208422 -0.372227
-0.36766 0.725299 -0.301351
-0.380883 0.515512 -0.342514
-0.372229 0.659782 -0.336126
-0.322294 0.763055 -0.338193
-0.320525 -0.273933 -0.387169
-0.368545 0.22275 -0.363475
-0.326941 -0.257643 -0.371634
-0.331437 0.226715 -0.399143
-0.315539 -0.256858 -0.429974
-0.341351 0.703992 -0.355558
-0.322883 -0.208209 -0.410442
-0.319613 0.238266 -0.405908
-0.354067 0.653996 -0.366647
-0.329558 0.672865 -0.387308
-0.34641 0.556726 -0.403504
-0.349485 0.519752 -0.408423
-0.274854 -0.347387 -0.436387
-0.329451 0.615137 -0.411386
-0.323412 0.492056 -0.445104
-0.288875 -0.304807 -0.460799
-0.321582 0.573875 -0.427834
-0.309236 0.651724 -0.417079
-0.265057 0.719594 -0.428603
-0.331233 0.449619 -0.452891
-0.291276 0.235493 -0.457051
-0.296137 0.625999 -0.439103
-0.257249 -0.350644 -0.47082
-0.323587 0.412106 -0.466584
-0.271676 -0.306245 -0.490467
-0.281315 0.217786 -0.478978
-0.320519 0.36635 -0.481552
-0.30143 -0.0195196 -0.485119
-0.284598 0.185783 -0.486114
-0.250043 -0.329749 -0.511782
-0.239877 -0.297119 -0.541578
-0.244275 -0.321236 -0.525062
-0.261636 -0.298104 -0.514734
-0.275304 0.308683 -0.504987
-0.255829 -0.0863504 -0.538124
-0.274732 0.387726 -0.515924
-0.249261 -0.24519 -0.531011
-0.211301 -0.345643 -0.543624
-0.214989 -0.305332 -0.561113
-0.245387 -0.19887 -0.550557
-0.189423 -0.351388 -0.569783
-0.201904 -0.317581 -0.570609
-0.215533 -0.133729 -0.587588
-0.189618 -0.297392 -0.587549
-0.136402 -0.340485 -0.645578
-0.191269 -0.0753469 -0.610258
-0.142939 -0.233109 -0.617509
-0.169596 -0.186782 -0.591968
-0.176211 -0.0665819 -0.625163
-0.161667 -0.0457499 -0.624793
-0.0697351 0.299947 -0.544152
-0.139207 -0.371972 -0.62936
-0.144087 -0.301056 -0.636034
-0.051103 0.32167 -0.556161
-0.0912473 0.159508 -0.607405
-0.0960147 0.190124 -0.58516
-0.129142 -0.31808 -0.654258
-0.142036 -0.130242 -0.626515
-0.0806589 0.223542 -0.583196
-0.0355203 0.343916 -0.560573
-0.14781 -0.0584186 -0.649892
-0.115699 0.0649161 -0.626708
-0.109645 0.0865772 -0.628182
-0.108558 0.0828535 -0.60995
-0.0600966 0.254819 -0.617051
-0.0524468 0.294077 -0.581106
-0.0382133 0.32729 -0.600041
-0.0682623 0.2049 -0.637843
-0.0759003 0.106869 -0.679507
-0.0868358 0.105802 -0.654669
-0.0442688 0.28738 -0.641687
-0.0471295 0.186224 -0.698146
-0.0610036 0.192935 -0.659919
-0.03145 0.0397769 -0.681324
-0.042321 0.0549498 -0.692027
-0.0653911 0.0704815 -0.716149
-0.0553966 0.060076 -0.733667
-0.0627608 0.0689858 -0.745069
-0.515232 0.169172 0.0650982
-0.371797 0.472872 -0.380996
0.0249266 -0.0048375 -0.665395
0.0244886 0.00968336 -0.660136
0.0166219 -0.0258923 -0.683281
-0.0566783 0.126176 -0.710304
-0.0434872 -0.0731605 -0.693541
-0.0361078 0.0134939 -0.656553
-0.0446153 0.0139922 -0.65365
-0.0665074 0.0158908 -0.641937
-0.0856092 -0.237838 -0.645668
-0.0471981 0.370476 -0.563932
-0.0736488 0.37387 -0.559916
-0.124808 0.3864 -0.561855
-0.138202 0.069378 -0.598399
-0.0952607 0.366233 -0.540369
-0.103861 0.361187 -0.522972
-0.0945448 0.309633 -0.515885
-0.118316 0.364145 -0.524387
-0.139221 0.391114 -0.562424
-0.141855 0.104921 -0.591416
-0.141757 0.372037 -0.537114
-0.132424 0.330546 -0.526316
-0.160769 0.135445 -0.566364
-0.184238 0.393275 -0.536513
-0.141173 0.317015 -0.511328
-0.166763 0.415675 -0.567278
-0.18118 0.32444 -0.523335
-0.15637 0.273032 -0.522612
-0.173291 0.31321 -0.515682
-0.185054 0.11241 -0.563513
-0.226725 0.0556405 -0.553218
-0.180573 0.26507 -0.523237
-0.224453 -0.151614 -0.579746
-0.166583 0.341148 -0.535062
-0.218506 0.306582 -0.511162
-0.221999 -0.183168 -0.568868
-0.234266 -0.166171 -0.560699
-0.202673 0.301271 -0.508958
-0.242969 0.500061 -0.500559
-0.117692 -0.628551 -0.227266
-0.263195 0.382477 -0.518948
-0.278372 0.364673 -0.501364
-0.119472 -0.581218 -0.236016
-0.130301 -0.601927 -0.224894
-0.293108 -0.169533 -0.497932
-0.266308 0.501135 -0.487128
-0.287562 -0.145642 -0.5034
-0.301131 0.287604 -0.473238
-0.299953 0.369429 -0.49722
-0.298568 -0.0779695 -0.48126
-0.312312 -0.154819 -0.460359
-0.312802 -0.232195 -0.451279
-0.311616 -0.109293 -0.455568
-0.323557 0.343849 -0.472897
-0.330644 0.3647 -0.469685
-0.314284 0.291027 -0.440874
-0.311493 0.273743 -0.437682
-0.337725 0.120545 -0.466471
-0.349576 0.13393 -0.446248
-0.341574 0.37936 -0.442575
-0.33432 -0.0870921 -0.420363
-0.343845 -0.0202314 -0.420783
-0.347152 0.352079 -0.428269
-0.345675 -0.0371052 -0.409814
-0.344074 0.33111 -0.42541
-0.345123 0.296857 -0.413979
-0.344971 0.0910807 -0.454671
-0.351057 -0.0901914 -0.383749
-0.350394 -0.059926 -0.395166
-0.354425 0.413 -0.423436
-0.362104 0.349287 -0.403388
-0.36335 0.31601 -0.388079
-0.378327 0.0831202 -0.394315
-0.370222 0.416096 -0.381149
-0.367434 0.305264 -0.361315
-0.359835 0.296613 -0.382911
-0.362597 0.277755 -0.362388
-0.369147 0.323656 -0.358136
-0.362977 0.0299267 -0.404606
-0.382515 0.417296 -0.364683
-0.372843 0.368734 -0.367811
-0.389008 0.164796 -0.385034
-0.379005 0.44124 -0.369134
-0.39645 0.111832 -0.37073
-0.379721 0.149124 -0.401441
-0.384298 0.575379 -0.333438
-0.391837 0.0621487 -0.358414
-0.255663 -0.353992 -0.13815
-0.387177 0.362148 -0.345683
-0.389916 0.252005 -0.320354
-0.392645 0.441492 -0.337653
-0.389066 0.329839 -0.332149
-0.289962 -0.399726 -0.0912816
-0.411338 0.118816 -0.338874
-0.397491 0.414439 -0.32578
-0.407784 0.336111 -0.293688
-0.387683 0.269632 -0.323921
-0.289902 -0.428773 -0.0918457
-0.287426 -0.321002 -0.0828925
-0.4194 0.395924 -0.278275
-0.411236 0.248145 -0.284729
-0.297865 -0.364716 -0.0725633
-0.416195 0.308911 -0.274676
-0.310985 -0.405833 -0.0532399
-0.408927 0.493151 -0.300965
-0.302657 -0.393452 -0.0643671
-0.327321 -0.618994 -0.109247
-0.422634 0.432218 -0.270675
-0.424911 0.343596 -0.265929
-0.309804 -0.375591 -0.0386363
-0.42797 0.471924 -0.267712
-0.430569 0.272239 -0.239809
-0.435118 0.390999 -0.249596
-0.44359 0.416163 -0.2396
-0.443151 0.30319 -0.221057
-0.45164 0.455523 -0.221022
-0.445323 0.374452 -0.222306
-0.436235 0.234904 -0.217475
-0.469331 0.40633 -0.189125
-0.454261 0.37603 -0.208245
-0.458677 0.534505 -0.185983
-0.458467 0.310651 -0.194034
-0.468963 0.420274 -0.189944
-0.480022 0.308354 -0.156404
-0.479957 0.340444 -0.158392
-0.491459 0.482159 -0.146533
-0.497383 0.317698 -0.111149
-0.429888 -0.0510274 0.0364856
-0.510556 0.569257 -0.0851505
-0.525615 0.481635 -0.0782295
-0.527186 0.513863 -0.0640722
-0.527494 0.477706 -0.0710371
-0.46486 0.052316 0.0773934
-0.449066 -0.00682982 0.0738461
-0.53409 0.444433 -0.0238194
-0.463566 0.016731 0.0825119
-0.529466 0.377513 -0.0176489
-0.508614 0.146034 0.0587835
-0.517367 0.156225 0.0629581
-0.524698 0.162609 0.0769595
-0.305035 -0.305593 -0.185685
0.0448006 -0.448029 -0.294356
0.0277603 -0.441509 -0.308637
-0.279935 -0.314885 -0.203251
-0.145413 -0.424444 -0.292107
-0.104839 -0.437957 -0.320412
-0.109671 -0.434575 -0.334045
-0.169118 -0.412152 -0.306744
-0.196334 -0.399981 -0.310619
-0.0606237 -0.440236 -0.343835
-0.144508 -0.425534 -0.332482
-0.0977051 -0.435389 -0.374361
0.0317074 -0.431836 -0.345709
-0.174117 -0.407083 -0.328638
0.000938405 -0.431043 -0.362149
-0.0436801 -0.438452 -0.358601
-0.135835 -0.427321 -0.376907
-0.220161 -0.393288 -0.327597
-0.166924 -0.413752 -0.383462
-0.217602 -0.393805 -0.373613
0.0612628 -0.428728 -0.339627
0.00717336 -0.419658 -0.443558
-0.11585 -0.428157 -0.398398
-0.0346819 -0.426439 -0.413188
0.0932742 -0.427228 -0.411907
-0.0685109 -0.435965 -0.387839
-0.211666 -0.397386 -0.401501
-0.109928 -0.420707 -0.4326
0.0687401 -0.428608 -0.413864
-0.0851384 -0.422793 -0.434821
-0.150637 -0.412234 -0.424584
0.0720417 -0.425173 -0.462862
-0.251205 -0.376778 -0.413159
-0.140356 -0.410522 -0.456503
0.00786932 -0.419472 -0.486488
0.0301015 -0.421026 -0.476446
-0.127649 -0.407702 -0.49461
-0.0852129 -0.417373 -0.511989
0.159165 -0.391723 -0.479317
0.0337824 -0.419544 -0.509911
-0.0283677 -0.420301 -0.461955
-0.11689 -0.411229 -0.511186
-0.191519 -0.389263 -0.48707
0.0558006 -0.418894 -0.518724
-0.0627257 -0.420389 -0.536246
-0.165394 -0.387522 -0.519174
-0.0451717 -0.419396 -0.578313
0.00390461 -0.419651 -0.542616
0.053127 -0.423649 -0.5654
-0.0875359 -0.42151 -0.553806
0.0297902 -0.423682 -0.582749
-0.137624 -0.407626 -0.546928
-0.00676235 -0.419311 -0.582156
-0.0743454 -0.422946 -0.580183
-0.102122 -0.421336 -0.578783
-0.128148 -0.410857 -0.581362
-0.0796774 -0.420476 -0.597073
-0.110328 -0.414398 -0.601825
-0.0888956 0.0404008 -0.647143
-0.0681421 0.0541096 -0.648647
0.0890902 0.0600461 -0.673563
-0.061366 0.0601317 -0.65833
-0.081366 0.0592387 -0.678689
-0.0162819 0.0274624 -0.741737
-0.0281104 0.0402114 -0.706051
-0.00911878 0.0328707 -0.696767
-0.0243702 0.0332131 -0.767191
-0.0261391 0.0461198 -0.79638
0.49203 0.0609115 0.00576293
0.102959 0.0459644 -0.640604
0.0802215 0.0463414 -0.638584
-0.0132975 -0.0724323 -0.680028
-0.00811676 0.053844 -0.800031
0.471802 -0.0415753 0.0409886
0.558771 0.181894 0.0828755
0.541147 0.173823 0.0777627
0.543468 0.188602 0.0480421
0.534386 0.180457 0.055031
0.51125 0.05938 0.0166093
0.499594 0.0636907 0.00601036
0.50405 0.161747 0.0188197
0.412762 -0.0905379 -0.0495748
0.407121 -0.0759156 -0.101234
0.278527 -0.301314 -0.284894
0.260085 -0.319329 -0.295045
0.24573 -0.327464 -0.276535
0.204052 0.412271 -0.521042
0.203822 0.426836 -0.541847
0.180215 0.409991 -0.527934
0.171983 0.414313 -0.538727
0.0272285 0.0376363 -0.69283
0.0407157 0.044729 -0.739416
0.451398 0.36353 0.358394
0.423343 0.296468 0.367992
0.530974 0.19515 0.0180048
0.518092 0.184896 0.00447419
0.481037 0.206115 -0.0153447
0.431756 0.0495416 -0.0557487
0.259443 -0.780292 -0.142894
0.474136 0.735158 1.57992e-05
0.419133 0.757954 -0.12128
0.40565 0.777854 -0.110847
0.429909 0.730563 -0.153743
0.398554 0.758236 -0.191725
0.39619 -0.0246464 -0.176792
0.368074 0.782193 -0.224321
0.333559 0.752209 0.388297
0.420692 0.579459 0.398188
0.32801 0.726053 0.418375
0.294124 0.805065 0.373105
0.355328 0.722814 0.389721
0.303186 0.767781 0.405834
0.260633 0.840731 0.360939
0.322312 0.805775 0.338999
0.342205 0.785629 0.337386
0.384532 0.711966 0.35497
0.364477 0.744047 0.353657
0.447523 0.624561 0.335528
0.177636 0.894808 0.351065
0.215485 0.874627 0.352508
0.221044 0.907766 0.293805
0.250105 0.872287 0.322916
0.374578 0.756559 0.327108
0.427189 0.716283 0.296971
0.395056 0.759309 0.296789
0.352745 0.805083 0.297499
0.451943 0.699934 0.284776
0.30104 0.844894 0.311348
0.235894 0.911231 0.271765
0.257426 0.9064 0.248711
0.315816 0.853566 0.273483
0.230854 0.920659 0.253366
0.316626 0.865081 0.243205
0.148715 0.962024 0.213784
0.212441 0.937252 0.215748
0.297822 0.895371 0.191421
0.275796 0.911805 0.184321
0.340468 0.860883 0.190812
0.265455 0.92291 0.13551
0.319081 0.885784 0.156916
0.220805 0.946299 0.121262
0.432788 0.774905 0.14801
0.450835 0.762968 0.126205
0.245024 0.936472 0.0796155
0.304772 0.899633 0.0806181
0.34146 0.8684 0.113253
0.420728 0.789974 0.111787
0.360852 0.856064 0.0826644
0.467329 0.74495 0.0624832
0.219307 0.948767 0.07985
0.329172 0.886025 0.0383971
0.297079 0.909765 -0.0226227
0.252127 0.933916 0.0458609
0.242939 0.938776 -0.0460129
0.322918 0.891396 -0.010847
0.196907 0.958963 -0.0345344
0.438194 0.757609 -0.0495906
0.261492 0.923227 -0.0923077
0.239328 0.927191 -0.126996
0.26096 0.89696 -0.191966
0.204972 0.899252 -0.269436
0.166965 0.85237 -0.364487
0.195905 0.775884 -0.429297
0.190138 0.89679 -0.285988
0.16299 0.88107 -0.324351
0.143723 0.782809 -0.444975
0.187737 0.835191 -0.374784
0.13976 0.762223 -0.461649
0.150072 0.903099 -0.300121
0.0855031 0.852106 -0.390347
0.129053 0.834376 -0.398936
0.103173 0.93031 -0.278684
0.0971832 0.833842 -0.40952
0.115622 0.734683 -0.484889
0.106511 0.913389 -0.301592
0.116423 0.887901 -0.331021
0.0736547 0.941415 -0.264097
0.0992248 0.78669 -0.45243
0.0529176 0.830746 -0.419136
0.0658824 0.876245 -0.359037
-0.00909181 0.939644 -0.271371
0.0395161 0.845569 -0.401729
0.0332647 0.929823 -0.288247
0.0571708 0.908827 -0.317463
0.0298822 0.330894 -0.611912
0.0227132 0.879411 -0.355749
-0.0324034 0.867046 -0.369207
0.0252573 0.321901 -0.639062
0.00706078 0.336553 -0.61439
-0.00819415 0.340288 -0.608559
-0.0492185 0.886945 -0.343602
0.00032863 0.352917 -0.585392
-0.0138375 0.311692 -0.662857
-0.0241122 0.817501 -0.430912
-0.0241527 0.3337 -0.612153
-0.0176486 0.918103 -0.305204
-0.0186389 0.950585 -0.247639
-0.0583652 0.941321 -0.262949
-0.0741648 0.955299 -0.228521
-0.0753087 0.915798 -0.301381
-0.110305 0.887497 -0.331827
-0.102475 0.939034 -0.256533
-0.132415 0.857184 -0.364739
-0.100929 0.954918 -0.218011
-0.136387 0.935622 -0.248031
-0.123017 0.903433 -0.307385
-0.142498 0.946264 -0.214853
-0.154115 0.95198 -0.192306
-0.148564 0.923397 -0.264958
-0.193236 0.933623 -0.208269
-0.18842 0.89856 -0.283964
-0.195492 0.914374 -0.249393
-0.217639 0.856732 -0.328216
-0.237524 0.894357 -0.250887
-0.199334 0.780991 -0.423191
-0.23376 0.918531 -0.201042
-0.233914 0.818991 -0.367757
-0.262923 0.869713 -0.26601
-0.275226 0.835414 -0.305369
0.425899 0.0176081 -0.00311458
0.472265 0.312006 0.309753
0.388736 0.218194 0.386291
0.402799 0.355014 0.437038
0.387287 0.309808 0.435765
0.17448 -0.0694209 0.375644
0.152292 -0.0636621 0.41749
0.204067 -0.0701732 0.350655
0.22175 -0.0763847 0.321872
0.212476 -0.0373907 0.399402
0.06139 -0.0177565 -0.673976
0.130438 0.0756306 -0.591356
0.127916 0.0391537 -0.581325
0.100554 0.0715474 -0.677079
0.0362972 0.0829942 -0.788881
0.0399828 0.0693071 -0.786985
0.0153033 0.0505635 -0.796001
-0.109904 0.0701977 -0.602286
-0.0790354 0.0735186 -0.695614
-0.0603475 0.0285981 -0.64106
-0.0846629 0.030971 -0.640686
-0.100718 0.0371051 -0.639361
-0.0975767 0.0451752 -0.658753
-0.103243 0.0475076 -0.656647
-0.0326133 0.0339935 -0.735556
-0.0281637 0.0693651 -0.804607
-0.039322 0.0385105 -0.761507
-0.0398057 0.0468486 -0.788649
-0.0379975 0.0551263 -0.798992
-0.0519039 0.0699468 -0.788177
-0.0528139 0.0622835 -0.779365
0.197455 0.3619 -0.532703
0.172912 0.346238 -0.529744
0.136932 0.396523 -0.51988
0.0961449 0.389575 -0.559748
0.156813 0.412047 -0.549779
0.121826 0.403063 -0.556951
0.0309118 0.310775 -0.653496
0.0350137 0.342466 -0.583152
-0.136355 0.274162 -0.518405
-0.233341 0.302942 -0.506698
-0.272541 0.298336 -0.503632
-0.230478 0.401723 -0.540926
0.457021 0.191 0.200662
0.438435 0.00916329 -0.00315327
0.478047 0.0918724 0.00377119
0.499406 0.0315919 0.0130456
0.477384 0.00739319 0.0019319
0.451568 -0.0075768 -0.0259466
0.496363 0.108376 0.00904516
0.499383 0.0459791 0.0137187
0.489492 0.0037574 0.00696313
0.460891 -0.00397736 -0.0113694
0.467651 0.0512038 0.0168849
0.418271 -0.0845134 -0.0361908
0.412385 -0.0839899 -0.0295143
0.435661 -0.0698501 0.00524931
0.420382 -0.0831766 -0.0213779
0.453673 -0.0598551 0.0373475
0.457854 -0.0621159 0.0241611
0.467012 -0.047778 0.0454036
0.464573 -0.0441258 0.0602903
0.344579 -0.134577 -0.0858488
0.362283 -0.123246 -0.0912048
0.354609 -0.102849 -0.0563286
0.386031 -0.091982 -0.045457
0.366761 -0.10782 -0.065956
0.3939 -0.0995227 -0.053801
0.386935 -0.113281 -0.0775963
0.403931 -0.102101 -0.0751607
0.521593 0.0809063 0.153029
0.455843 -0.0305184 0.0746963
0.564019 0.151069 0.169305
0.484484 -0.0250568 0.0897706
0.5303 0.0276383 0.111981
0.532399 0.105376 0.16095
0.564588 0.135001 0.172888
0.561246 0.110703 0.168232
0.550639 0.0646505 0.158212
0.555664 0.0866294 0.165576
0.562911 0.0741266 0.156318
0.573699 0.141375 0.166051
0.548968 0.052927 0.149482
0.569442 0.102592 0.146767
0.489527 -0.0267783 0.0839543
0.515307 0.0050778 0.102201
0.421349 0.0640988 0.117427
0.401495 0.0261965 0.117621
0.378766 0.00195974 0.0720285
0.428174 0.083808 0.154688
0.46557 0.0925502 0.124721
0.443829 0.134432 0.132361
0.431838 0.0994775 0.155691
0.457772 0.170656 0.134812
0.446602 0.124846 0.125648
0.43484 0.0900062 0.145207
0.395547 0.0176908 0.111787
0.409357 0.0289452 0.102066
0.450906 0.146318 0.125038
0.446233 0.0971243 0.135562
0.436101 0.0793754 0.121362
0.405324 0.0191325 0.0898996
0.533431 0.203072 0.0283064
0.48707 0.221545 0.0723099
0.536743 0.210355 0.0420029
0.551184 0.199703 0.0501059
0.496926 0.218881 0.0358465
0.48948 0.226139 0.041698
0.488448 0.212447 -0.000417493
0.498181 0.218733 0.0512727
0.515477 0.21201 0.0301534
0.510928 0.205834 0.0966951
0.499782 0.215644 0.070422
0.540226 0.211892 0.0568897
0.551108 0.205414 0.06039
0.497378 0.20681 0.102189
0.540642 0.199541 0.127882
0.534158 0.202036 0.103215
0.505873 0.196575 0.113751
0.535207 0.183403 0.147043
0.495748 0.18505 0.12193
0.489996 0.212781 0.102165
0.55883 0.179428 0.155257
0.560255 0.171701 0.105079
0.538033 0.194766 0.137714
0.549038 0.202839 0.0938573
0.56613 0.184645 0.112274
0.573084 0.175271 0.145659
0.558707 0.193554 0.125208
-0.268986 -0.323285 -0.119577
-0.289197 -0.307379 -0.1069
-0.410819 0.0700834 0.21692
-0.418345 0.0914279 0.215765
-0.441635 0.0950351 0.181483
-0.432519 0.0780263 0.181301
-0.433297 0.108473 0.194365
-0.388134 -0.0141067 0.131505
-0.39675 0.0157078 0.170619
-0.374548 -0.0201171 0.135809
-0.360152 -0.0431959 0.107853
-0.495925 0.108114 0.0770592
-0.514228 0.0996189 0.0939159
-0.506858 0.123126 0.0824592
-0.479061 -0.0103143 0.0905152
-0.466984 -0.0251155 0.0795569
-0.475084 0.00318456 0.0848103
-0.477936 0.037529 0.0825471
-0.457991 -0.0463245 0.0684168
-0.425504 0.0551081 0.0413228
-0.446202 0.116313 -0.0176917
-0.448091 0.110679 0.00132388
-0.46792 0.117514 0.0580975
-0.445122 0.0723331 0.00465654
-0.438331 0.0850598 0.0424368
-0.447795 0.101639 0.0272745
-0.451456 0.0963695 0.0505515
-0.430787 -0.0661099 0.0373886
-0.431345 -0.0714209 0.0457495
-0.403941 -0.0433946 -0.0160014
-0.410272 -0.0132354 0.0191188
-0.409193 -0.0297421 0.0172132
-0.426676 -0.000839952 0.00863357
-0.412245 0.0125376 0.0357762
-0.428249 0.0244264 0.0124793
-0.42923 0.0185626 -0.0148035
-0.422102 -0.0309113 -0.0372168
-0.419729 0.0149427 -0.0425582
-0.38535 -0.117552 -0.073237
-0.392994 -0.130914 -0.0561785
-0.38417 -0.127394 -0.00249425
-0.388062 -0.138098 -0.0420259
-0.351562 -0.134465 -0.0104846
-0.374429 -0.144174 -0.052076
-0.359081 -0.143027 -0.0302988
-0.36215 -0.151361 -0.0597392
-0.382346 -0.113022 0.0201331
-0.381223 -0.135826 -0.0686625
-0.364205 -0.101659 0.0433808
-0.392275 -0.0961326 0.0821132
-0.401668 -0.107015 0.055418
-0.379934 -0.107729 0.0369606
-0.397664 -0.103999 0.0715477
-0.407327 -0.104608 0.0459606
-0.418761 -0.0836809 0.109559
-0.440009 -0.0658074 0.147066
-0.454031 -0.0570278 0.160563
-0.476229 -0.0346104 0.180539
-0.443938 -0.0720236 0.133968
-0.407934 -0.0947934 0.0907791
-0.497901 0.183208 0.111253
-0.520279 0.177159 0.0893719
-0.528436 0.173596 0.111728
-0.48063 0.187711 0.0919224
-0.478095 0.193716 0.110585
-0.469385 0.203028 0.120535
-0.462696 0.172703 0.152712
-0.487737 0.160527 0.174699
-0.471127 0.168282 0.155978
-0.507903 0.175444 0.125349
-0.494038 0.167069 0.165893
-0.541458 0.164721 0.12665
-0.537829 0.168217 0.134695
-0.482484 0.0235053 0.209187
-0.491558 -0.0055405 0.199489
-0.527768 0.0327305 0.187616
-0.510331 0.0370887 0.219072
-0.529488 0.0638121 0.225528
-0.525669 0.043306 0.22018
-0.267443 -0.368524 -0.359438
-0.274278 -0.358613 -0.321411
-0.288824 -0.348781 -0.358671
-0.241057 -0.380011 -0.315797
-0.254306 -0.36447 -0.290861
-0.188392 -0.400803 -0.289493
-0.20889 -0.388222 -0.283611
-0.2393 -0.362179 -0.26237
-0.350526 -0.538428 -0.0590468
-0.357112 -0.522521 -0.0438839
-0.348945 -0.564443 -0.0497688
-0.286971 -0.782531 -0.17515
-0.345796 -0.560907 -0.0684678
-0.339915 -0.582431 -0.0870455
